# .PCD v0.7 - Point Cloud Data file format
VERSION 0.7
FIELDS x y z rgb
SIZE 4 4 4 4
TYPE F F F F
COUNT 1 1 1 1
WIDTH 961
HEIGHT 1
VIEWPOINT 0 0 0 1 0 0 0
POINTS 961
DATA ascii
0.374497 -0.0010123178 0.055628598 1.4475801e-38
0.36901903 -0.0013816953 0.055565119 1.4567638e-38
0.36719304 -0.0015048236 0.055543959 1.4936779e-38
0.33337879 -0.0051522031 0.088254869 8.3729125e-40
0.33148992 -0.0052795708 0.088232994 5.6070576e-40
0.32960105 -0.0054069385 0.088211119 2.8591533e-40
0.32814735 -0.0053806491 0.085184872 5.6249662e-40
0.3262642 -0.0055076368 0.085163057 8.3764578e-40
0.32393444 -0.0057890341 0.088145435 8.3872337e-40
0.32249787 -0.0057615973 0.085119426 8.3764718e-40
0.32061473 -0.0058885776 0.085097611 1.0223958e-39
0.31873155 -0.0060155578 0.085075796 1.1153103e-39
0.31637889 -0.0062985048 0.088057876 1.4837326e-39
0.31449002 -0.006425865 0.088036001 1.7610342e-39
0.31260115 -0.0065532327 0.088014126 1.8528725e-39
0.31071225 -0.0066806003 0.087992191 1.9436276e-39
0.30882338 -0.006807968 0.087970316 1.7592363e-39
0.30693448 -0.0069353357 0.087948442 1.5744835e-39
0.3050456 -0.0070627034 0.087926567 2.0336568e-39
0.30264717 -0.0073487312 0.090908051 2.3995667e-39
0.30075258 -0.0074764788 0.090886116 1.7567224e-39
0.29885799 -0.0076042339 0.090864182 1.1149529e-39
0.29749009 -0.0075721666 0.087839007 1.3933335e-39
0.29560122 -0.0076995343 0.087817132 1.5773674e-39
0.29371232 -0.0078268945 0.087795198 1.6699232e-39
0.29291117 -0.0076323189 0.081767321 1.7610398e-39
0.29103372 -0.0077589117 0.081745565 1.4851718e-39
0.28952646 -0.0077776797 0.079721808 1.2096667e-39
0.28727883 -0.0080121048 0.081702054 1.1185501e-39
0.28577918 -0.0080303587 0.079678357 9.3380147e-40
0.28390557 -0.0081566907 0.079656661 1.0259943e-39
0.28203192 -0.0082830302 0.079634905 1.1189088e-39
0.28015828 -0.0084093697 0.079613209 1.3944195e-39
0.27828467 -0.0085357092 0.079591513 1.5791583e-39
0.27641103 -0.0086620487 0.079569817 9.3486786e-40
0.27513844 -0.0086235628 0.076545656 2.0275948e-40
0.27387726 -0.0085842982 0.073521733 4.9911841e-39
0.27201506 -0.0087098703 0.073500156 9.7835296e-39
0.27077106 -0.0086694546 0.070476353 1.2272813e-38
0.26891458 -0.0087946318 0.070454836 1.4664146e-38
0.26747787 -0.0088086352 0.068432033 1.5861977e-38
0.26562518 -0.0089335665 0.068410575 1.7058721e-38
0.2644136 -0.0088909604 0.06538713 1.8163631e-38
0.2632134 -0.0088475943 0.062363863 1.9180298e-38
0.26311213 -0.0085229501 0.0543378 2.0470677e-38
0.26194438 -0.0084773935 0.05131489 2.175745e-38
0.26012412 -0.0086001344 0.05129379 2.1942197e-38
0.25875029 -0.0086099021 0.049271643 2.2034027e-38
0.25760919 -0.0085625462 0.046249092 2.1023115e-38
0.25579846 -0.0086846463 0.046228051 2.000571e-38
0.25398773 -0.008806739 0.04620707 1.7703327e-38
0.252177 -0.0089288391 0.04618609 1.5298654e-38
0.25036627 -0.0090509392 0.046165109 1.0962923e-38
0.24902485 -0.0090585165 0.044143438 6.5515818e-39
0.24721792 -0.0091803558 0.044122458 7.1022262e-39
0.24541101 -0.0093021952 0.044101536 7.6572021e-39
0.24360408 -0.0094240345 0.044080615 9.411063e-39
0.24179716 -0.0095458813 0.044059634 1.1153774e-38
0.39055133 -0.0019696876 0.060916007 1.4750581e-38
0.3887158 -0.0020934567 0.060894728 1.4752736e-38
0.38705599 -0.0021186993 0.058869064 1.484529e-38
0.38522428 -0.002242215 0.058847845 1.4937489e-38
0.3833926 -0.0023657233 0.058826625 1.5028611e-38
0.38156089 -0.0024892315 0.058805406 1.5120446e-38
0.37972921 -0.0026127473 0.058784187 1.5307346e-38
0.37818962 -0.0025865436 0.055756748 1.5585366e-38
0.37636364 -0.0027096719 0.055735588 1.5120809e-38
0.37484121 -0.0026823245 0.052708328 1.4567279e-38
0.37302095 -0.0028050654 0.052687228 1.4475437e-38
0.3714107 -0.0028269701 0.05066216 1.429177e-38
0.36905974 -0.0032021701 0.055650949 1.4567998e-38
0.36723375 -0.0033252984 0.05562979 1.484495e-38
0.33342087 -0.0070353821 0.08834368 9.3235674e-40
0.33195567 -0.0070041753 0.085317075 7.4832701e-40
0.32964313 -0.0072901174 0.08829993 6.5756491e-40
0.32775426 -0.0074174851 0.088278055 7.4868014e-40
0.32630616 -0.0073851235 0.085251629 9.319952e-40
0.32442302 -0.0075120963 0.085229754 8.3980377e-40
0.32253984 -0.007639084 0.085207939 8.3944644e-40
0.32065669 -0.0077660643 0.085186124 1.0231188e-39
0.31877351 -0.0078930445 0.085164309 1.1163879e-39
0.31642097 -0.0081816837 0.088146687 1.3933279e-39
0.3145321 -0.0083090439 0.088124812 1.6706322e-39
0.31264323 -0.0084364116 0.088102937 1.7621118e-39
0.31075433 -0.0085637793 0.088081002 1.9447052e-39
0.30886546 -0.008691147 0.088059127 1.7599566e-39
0.30697656 -0.0088185146 0.088037252 1.4833683e-39
0.304584 -0.0091098547 0.091019094 1.5741206e-39
0.3026894 -0.0092376098 0.090997159 1.7570783e-39
0.30079481 -0.0093653575 0.090975225 1.2046346e-39
0.29890019 -0.0094931126 0.090953231 7.4402502e-40
0.29753217 -0.0094553456 0.087927818 1.1138809e-39
0.2956433 -0.0095827132 0.087905943 1.4830194e-39
0.2937544 -0.0097100735 0.087884009 1.4833809e-39
0.29295298 -0.0095040984 0.081855595 1.5752164e-39
0.29107553 -0.0096306913 0.081833839 1.3911853e-39
0.2891981 -0.0097572915 0.081812084 1.299347e-39
0.28732067 -0.0098838843 0.081790328 9.3128474e-40
0.28544322 -0.010010477 0.081768513 6.5506219e-40
0.28394729 -0.010024671 0.079744756 6.5685585e-40
0.28207368 -0.01015101 0.079723001 7.5013328e-40
0.28020003 -0.01027735 0.079701304 8.4197439e-40
0.27832639 -0.010403689 0.079679608 9.3703287e-40
0.27645278 -0.010530028 0.079657912 5.6753288e-40
0.27457914 -0.010656361 0.079636157 1.9953369e-40
0.27391875 -0.010440879 0.073609293 4.8997045e-39
0.27205655 -0.010566451 0.073587716 9.6941996e-39
0.27081242 -0.010520328 0.070563674 1.1994427e-38
0.26937181 -0.010530792 0.068540633 1.4201377e-38
0.26751912 -0.010655709 0.068519115 1.5492124e-38
0.26566646 -0.01078064 0.068497658 1.687541e-38
0.26445472 -0.010732342 0.065473974 1.8165067e-38
0.26325443 -0.010683268 0.062450409 1.9456165e-38
0.26315284 -0.010343425 0.05442369 2.0562514e-38
0.26132685 -0.010466553 0.05440253 2.1758532e-38
0.26016468 -0.010414917 0.051379383 2.185073e-38
0.25879076 -0.010420885 0.049357057 2.2035467e-38
0.25764954 -0.010367814 0.046334207 2.1112796e-38
0.25583881 -0.010489915 0.046313226 2.0187582e-38
0.25402808 -0.010612007 0.046292245 1.7607175e-38
0.25221735 -0.010734107 0.046271265 1.5020258e-38
0.25087202 -0.010738146 0.044249296 1.1056524e-38
0.2490651 -0.010859985 0.044228375 7.1937128e-39
0.24725817 -0.010981824 0.044207454 7.473185e-39
0.24545126 -0.011103664 0.044186473 7.8405536e-39
0.24364433 -0.01122551 0.044165552 9.7770163e-39
0.24183741 -0.011347342 0.04414463 1.1713438e-38
0.39076018 -0.0036978573 0.058997691 1.4753099e-38
0.3889285 -0.0038213655 0.058976412 1.5028965e-38
0.38736022 -0.0037913918 0.055948436 1.5121877e-38
0.38553423 -0.0039145201 0.055927277 1.5121521e-38
0.38370824 -0.0040376484 0.055906117 1.5213359e-38
0.38188228 -0.0041607693 0.055884957 1.5213717e-38
0.38034254 -0.0041288771 0.052857161 1.5490298e-38
0.37852228 -0.0042516179 0.052836061 1.5673612e-38
0.37640432 -0.0045301467 0.055821419 1.5211564e-38
0.37488177 -0.0044970922 0.05279392 1.4659469e-38
0.37306151 -0.0046198331 0.05277282 1.4567268e-38
0.37145117 -0.004637938 0.050747573 1.4383962e-38
0.36963472 -0.0047604181 0.050726473 1.4567997e-38
0.3672744 -0.0051457733 0.055715621 1.466127e-38
0.33388075 -0.0087546743 0.085427403 9.3343433e-40
0.3319976 -0.0088816546 0.085405588 9.3379307e-40
0.33054367 -0.0088439845 0.082378983 9.3379167e-40
0.32823128 -0.0091356151 0.085361958 9.3379026e-40
0.32634813 -0.0092625953 0.085340142 9.330742e-40
0.32446495 -0.009389583 0.085318327 9.330756e-40
0.32258177 -0.0095165633 0.085296512 8.3980237e-40
0.32115644 -0.009476956 0.082270205 1.022037e-39
0.31881547 -0.0097705238 0.085252821 1.1160277e-39
0.31693232 -0.009897504 0.085231006 1.3029315e-39
0.31457418 -0.01019223 0.088213623 1.4866039e-39
0.31268531 -0.010319598 0.088191748 1.7631894e-39
0.31079641 -0.010446966 0.088169813 1.944708e-39
0.30890754 -0.010574333 0.088147938 1.6681267e-39
0.30701864 -0.010701701 0.088126063 1.390821e-39
0.3046262 -0.010998733 0.091108203 1.2064255e-39
0.3027316 -0.011126488 0.091086209 1.0216783e-39
0.300322 -0.01142469 0.094068229 7.4473548e-40
0.29842168 -0.011552826 0.094046175 3.7668164e-40
0.29757425 -0.011338532 0.088016629 9.2734149e-40
0.29568538 -0.0114659 0.087994695 1.388314e-39
0.29433435 -0.011421274 0.084969163 1.3886742e-39
0.2929948 -0.011375885 0.08194381 1.2968373e-39
0.29111737 -0.011502478 0.081922054 1.2961198e-39
0.28923991 -0.011629079 0.081900299 1.2957555e-39
0.28736246 -0.011755671 0.081878543 8.3549758e-40
0.28586268 -0.011766318 0.079854548 3.773963e-40
0.28398904 -0.011892658 0.079832852 3.8026616e-40
0.2821154 -0.012018997 0.079811096 2.8628387e-40
0.28024179 -0.012145337 0.0797894 2.8628808e-40
0.27836815 -0.012271676 0.079767704 2.9166486e-40
0.2764945 -0.012398016 0.079746008 1.9874896e-40
0.27522165 -0.012348115 0.076721311 1.1271765e-40
0.27396023 -0.012297459 0.073696852 4.8979137e-39
0.27209803 -0.012423031 0.073675275 9.5969817e-39
0.27085376 -0.012371209 0.070650935 1.1717483e-38
0.26941305 -0.012377866 0.068627715 1.3738962e-38
0.26756042 -0.012502797 0.068606257 1.5212659e-38
0.26634282 -0.012449179 0.065582216 1.6597746e-38
0.26513666 -0.012394793 0.062558353 1.816471e-38
0.26394194 -0.012339629 0.059534609 1.9639834e-38
0.26319349 -0.0121639 0.054509521 2.0655783e-38
0.26136753 -0.012287028 0.054488361 2.1665977e-38
0.26020521 -0.012229685 0.051464975 2.1850727e-38
0.25883123 -0.012231853 0.04944247 2.1942196e-38
0.25768989 -0.012173083 0.046419322 2.1112441e-38
0.25587916 -0.012295183 0.046398342 2.0280138e-38
0.25406843 -0.012417275 0.046377361 1.7517137e-38
0.2522577 -0.012539376 0.04635638 1.4650769e-38
0.25044695 -0.012661476 0.046335399 1.1232311e-38
0.24863622 -0.012783568 0.046314418 7.8415891e-39
0.24682547 -0.012905668 0.046293437 7.9395413e-39
0.24501474 -0.013027761 0.046272457 7.9374029e-39
0.24320401 -0.013149861 0.046251476 1.0051068e-38
0.24139328 -0.013271954 0.046230495 1.2173715e-38
0.39105284 -0.0053656176 0.056076586 1.4936777e-38
0.38922685 -0.0054887459 0.056055427 1.5121165e-38
0.38766417 -0.0054526962 0.053027153 1.5121522e-38
0.3858439 -0.0055754296 0.053006053 1.5213718e-38
0.38402364 -0.0056981705 0.052984953 1.5213361e-38
0.38220337 -0.0058209114 0.052963853 1.5213717e-38
0.38038313 -0.0059436522 0.052942753 1.5305908e-38
0.37875745 -0.0059589855 0.050917149 1.5397385e-38
0.3767426 -0.0061891265 0.052900553 1.5120083e-38
0.37492234 -0.0063118674 0.052879453 1.4751301e-38
0.37310207 -0.0064346083 0.052858353 1.4659458e-38
0.3712818 -0.0065573491 0.052837312 1.4475794e-38
0.36967519 -0.0065714009 0.050811887 1.4568353e-38
0.33580589 -0.010505181 0.085537791 1.0256328e-39
0.33434039 -0.010462571 0.082510769 1.0259901e-39
0.33203954 -0.010759141 0.085494161 1.02563e-39
0.33058548 -0.010715764 0.082467258 1.02563e-39
0.32870805 -0.010842357 0.082445502 1.0252712e-39
0.32683063 -0.01096895 0.082423747 9.3343574e-40
0.32495317 -0.01109555 0.082401991 9.33077e-40
0.32307571 -0.011222143 0.082380235 9.3235393e-40
0.32119828 -0.011348736 0.082358479 9.3162946e-40
0.31932086 -0.011475328 0.082336724 9.3020434e-40
0.31697425 -0.011774991 0.085319579 1.1171123e-39
0.31509107 -0.011901971 0.085297763 1.393695e-39
0.31272739 -0.012202777 0.088280559 1.8532312e-39
0.31083849 -0.012330145 0.088258624 2.4028135e-39
0.3094416 -0.012282912 0.085232258 1.8503684e-39
0.30755842 -0.012409892 0.085210443 1.2975561e-39
0.30517185 -0.01271224 0.088192999 1.1131607e-39
0.30277383 -0.013015375 0.091175318 9.2912534e-40
0.30087924 -0.013143122 0.091153324 8.3549058e-40
0.29950523 -0.013094343 0.088127315 7.4330476e-40
0.29814261 -0.013044793 0.085101366 1.1106551e-39
0.29625946 -0.013171781 0.085079491 1.4779971e-39
0.29437631 -0.013298761 0.085057676 1.4787132e-39
0.29303664 -0.013247665 0.082032084 1.4783545e-39
0.2915253 -0.01325528 0.080007792 1.1110125e-39
0.28965169 -0.013381619 0.079986036 8.3406406e-40
0.28777805 -0.013507959 0.07996434 5.5711423e-40
0.28590441 -0.013634298 0.079942644 2.8089028e-40
0.2840308 -0.01376063 0.079920948 1.2914395e-39
0.28215712 -0.01388697 0.079899192 2.3001992e-39
0.28028351 -0.014013309 0.079877496 4.5182445e-39
0.2784099 -0.014139649 0.0798558 6.7233698e-39
0.27713117 -0.014084451 0.076830804 5.6260031e-39
0.27526325 -0.014210403 0.076809168 4.6130129e-39
0.27339536 -0.014336355 0.076787472 7.0119252e-39
0.27213952 -0.014279604 0.073762834 9.4147456e-39
0.27130699 -0.014100023 0.068736315 1.1530579e-38
0.26945436 -0.014224939 0.068714797 1.364102e-38
0.26760167 -0.01434987 0.06869334 1.5119016e-38
0.26638395 -0.01429056 0.06566906 1.6597739e-38
0.26517767 -0.014230467 0.062644899 1.816471e-38
0.26398283 -0.014169604 0.059620917 1.9732028e-38
0.2632342 -0.013984375 0.054595351 2.0653629e-38
0.26140821 -0.014107503 0.054574192 2.1664539e-38
0.2602458 -0.01404446 0.051550567 2.1850366e-38
0.25887167 -0.014042828 0.049527884 2.2035107e-38
0.25705522 -0.014165308 0.049506843 2.1204995e-38
0.25523877 -0.014287788 0.049485743 2.046704e-38
0.25410876 -0.014222551 0.046462476 1.7515707e-38
0.25229803 -0.014344651 0.046441495 1.4649698e-38
0.25048727 -0.014466751 0.046420515 1.1516075e-38
0.24867655 -0.014588844 0.046399534 8.4905431e-39
0.24686581 -0.014710944 0.046378553 8.9504534e-39
0.24505508 -0.014833037 0.046357572 9.3156444e-39
0.24324435 -0.014955137 0.046336591 1.0329424e-38
0.24143362 -0.01507723 0.04631561 1.1346143e-38
0.39151305 -0.0069125779 0.051149905 1.5120086e-38
0.3896966 -0.007035058 0.051128864 1.5212642e-38
0.38788015 -0.0071575381 0.051107824 1.5213003e-38
0.38606369 -0.0072800256 0.051086724 1.5213362e-38
0.38424724 -0.0074025057 0.051065683 1.5213003e-38
0.38243079 -0.0075249858 0.051044643 1.5213718e-38
0.38061434 -0.0076474734 0.051023602 1.5214075e-38
0.37879789 -0.0077699535 0.051002562 1.5121521e-38
0.37678313 -0.0080038942 0.052986145 1.5028608e-38
0.37496287 -0.0081266351 0.052965045 1.4844215e-38
0.37334853 -0.0081374012 0.050939381 1.4752017e-38
0.37184674 -0.008091528 0.047911525 1.4568347e-38
0.37003598 -0.0082136281 0.047890544 1.4567991e-38
0.33584782 -0.01238266 0.085626304 1.0263488e-39
0.33438221 -0.01233435 0.082599044 1.026346e-39
0.3320815 -0.012636621 0.085582674 1.1174613e-39
0.33062732 -0.012587544 0.082555532 1.1167466e-39
0.3287499 -0.012714136 0.082533777 1.0241964e-39
0.32687244 -0.012840729 0.082512021 9.3344274e-40
0.32529241 -0.012849178 0.080486655 9.3344975e-40
0.3234188 -0.012975518 0.080464959 9.3307981e-40
0.32154512 -0.013101857 0.080443263 8.412345e-40
0.31936267 -0.013347108 0.082424998 7.4796828e-40
0.31748521 -0.013473708 0.082403243 1.0245566e-39
0.31513304 -0.01377945 0.085386276 1.2093136e-39
0.31276947 -0.014085963 0.08836937 2.0372792e-39
0.31088057 -0.014213331 0.088347435 2.861998e-39
0.30948356 -0.014160391 0.08532083 2.0326016e-39
0.30760038 -0.014287371 0.085299015 1.1131663e-39
0.30521393 -0.014595434 0.08828181 1.0195329e-39
0.30332506 -0.014722794 0.088259876 8.3585632e-40
0.30092144 -0.015032008 0.091242433 9.2445902e-40
0.29954731 -0.01497753 0.088216126 1.017735e-39
0.29818457 -0.014922272 0.085189879 1.2943233e-39
0.29630142 -0.01504926 0.085168064 1.477637e-39
0.29495591 -0.014992852 0.082142115 1.5698326e-39
0.29344067 -0.014996927 0.080117583 1.5683935e-39
0.29156703 -0.015123267 0.080095887 9.2661702e-40
0.28969342 -0.015249606 0.080074131 2.8017702e-40
0.2878198 -0.015375946 0.080052435 1.8618492e-40
0.28594613 -0.015502278 0.080030739 9.6183725e-41
0.28407252 -0.015628617 0.080008984 2.2048535e-39
0.28277653 -0.015568875 0.076983571 4.3393071e-39
0.28032523 -0.015881296 0.079965591 8.7631923e-39
0.27845162 -0.016007636 0.079943895 1.3080535e-38
0.2771728 -0.015946731 0.076918602 1.1152347e-38
0.27590537 -0.015885048 0.073893547 9.1251743e-39
0.27464944 -0.015822601 0.070868552 9.2141652e-39
0.27279297 -0.015947785 0.070847034 9.2296383e-39
0.27134827 -0.015947111 0.068823397 1.1440554e-38
0.26949561 -0.016072027 0.068801939 1.3552067e-38
0.26764295 -0.016196959 0.068780482 1.5024319e-38
0.2664251 -0.016131941 0.065755904 1.6505909e-38
0.2652187 -0.016066149 0.062731445 1.8164712e-38
0.26402372 -0.015999585 0.059707224 1.9823508e-38
0.26327485 -0.015804842 0.054681242 2.0745826e-38
0.26144889 -0.01592797 0.054660082 2.1573782e-38
0.26028633 -0.015859228 0.051636159 2.1851083e-38
0.25891215 -0.015853796 0.049613297 2.2034391e-38
0.25709569 -0.015976276 0.049592197 2.1297552e-38
0.25595981 -0.015905734 0.046568632 2.0558157e-38
0.25414908 -0.016027827 0.046547651 1.7612559e-38
0.25233835 -0.016149927 0.04652667 1.455895e-38
0.25052762 -0.016272027 0.04650569 1.1875195e-38
0.24871689 -0.01639412 0.046484709 9.1316217e-39
0.24690615 -0.01651622 0.046463728 9.9642536e-39
0.24438055 -0.016833652 0.049444854 1.0697861e-38
0.2425641 -0.016956139 0.049423814 1.0604232e-38
0.24074765 -0.017078619 0.049402773 1.0523216e-38
0.39180511 -0.0085537322 0.048227489 1.567289e-38
0.38999438 -0.0086758323 0.048206508 1.5671462e-38
0.38818365 -0.008797925 0.048185527 1.5581785e-38
0.38637292 -0.0089200251 0.048164546 1.5581424e-38
0.38456219 -0.0090421252 0.048143566 1.5489586e-38
0.38247126 -0.0093359537 0.051130056 1.5397392e-38
0.38065481 -0.0094584413 0.051109016 1.5305914e-38
0.37883836 -0.0095809214 0.051087976 1.5305552e-38
0.37682369 -0.0098186694 0.053071737 1.5121161e-38
0.37500343 -0.0099414103 0.053050637 1.5028965e-38
0.37338901 -0.0099483691 0.051024795 1.4844574e-38
0.37157255 -0.010070849 0.051003754 1.4752378e-38
0.3697561 -0.010193337 0.050982714 1.4568347e-38
0.33736697 -0.014313392 0.088742733 1.30257e-39
0.33547807 -0.01444076 0.088720798 1.2103758e-39
0.33400661 -0.01438712 0.085693061 1.2103715e-39
0.33212346 -0.0145141 0.085671246 1.2096499e-39
0.33066916 -0.014459323 0.082643807 1.3000561e-39
0.32879171 -0.014585916 0.082622051 1.2089436e-39
0.32720777 -0.014590818 0.080596507 1.0260027e-39
0.32533413 -0.014717158 0.080574751 1.2089688e-39
0.32346052 -0.014843497 0.080553055 1.3004316e-39
0.32158688 -0.014969837 0.080531359 1.1160291e-39
0.31971323 -0.015096176 0.080509663 9.3056448e-40
0.31783962 -0.015222516 0.080487907 1.0234762e-39
0.3156496 -0.015472081 0.082469702 1.207887e-39
0.31377214 -0.015598673 0.082447946 1.5759675e-39
0.31140867 -0.01591089 0.085431159 2.036203e-39
0.30952549 -0.01603787 0.085409343 1.5737787e-39
0.30764234 -0.01616485 0.085387528 1.1124474e-39
0.30525601 -0.016478613 0.088370621 1.2049976e-39
0.30336714 -0.016605981 0.088348687 1.2049934e-39
0.30147824 -0.016733348 0.088326812 1.2943135e-39
0.29958937 -0.016860716 0.088304937 1.3843582e-39
0.29770046 -0.016988084 0.088283062 1.1092132e-39
0.29581159 -0.017115451 0.088261127 8.3406966e-40
0.29446024 -0.01705372 0.085234761 8.3192147e-40
0.29348242 -0.016864907 0.080205679 8.2976067e-40
0.29160878 -0.016991246 0.080183923 1.3807638e-39
0.29028979 -0.016927339 0.077157974 1.9292657e-39
0.28842187 -0.017053291 0.077136278 4.0508077e-39
0.28655398 -0.017179243 0.077114642 6.2535074e-39
0.28468606 -0.017305192 0.077093005 8.2032993e-39
0.28281814 -0.017431151 0.077071369 1.0150488e-38
0.28036699 -0.017749276 0.080053687 1.2265921e-38
0.2790823 -0.017683055 0.077028096 1.4478943e-38
0.27780908 -0.01761606 0.074002683 1.3182843e-38
0.27694756 -0.017419409 0.068974912 1.1980352e-38
0.27570099 -0.01735061 0.065949738 1.1983201e-38
0.27324221 -0.017669257 0.068931997 1.2084071e-38
0.27200711 -0.017599691 0.065906942 1.2910655e-38
0.27016014 -0.017724227 0.065885544 1.3826867e-38
0.26831317 -0.017848771 0.065864146 1.5120107e-38
0.26710096 -0.017777663 0.062839389 1.6511654e-38
0.26590014 -0.01770578 0.059814811 1.8166868e-38
0.2644954 -0.017698612 0.057791412 1.9916781e-38
0.26266369 -0.017822128 0.057770193 2.0745827e-38
0.26148957 -0.017748456 0.054745913 2.1665976e-38
0.25966358 -0.01787157 0.054724753 2.1850723e-38
0.25850663 -0.017796744 0.051700652 2.203511e-38
0.25713617 -0.017787244 0.04967761 2.1389749e-38
0.25531971 -0.017909724 0.04965657 2.0742904e-38
0.25418943 -0.017833095 0.046632767 1.7700084e-38
0.2523787 -0.017955195 0.046611786 1.4649003e-38
0.25056797 -0.018077288 0.046590805 1.2063914e-38
0.24922612 -0.018065874 0.044568181 9.5944117e-39
0.2469465 -0.018321488 0.046548843 1.1160649e-38
0.24513577 -0.018443581 0.046527863 1.2722927e-38
0.24332504 -0.018565681 0.046506882 1.2817271e-38
0.39382002 -0.010120157 0.046328306 1.6318985e-38
0.39184546 -0.010359 0.048312664 1.6227507e-38
0.38977754 -0.010657001 0.051299632 1.6043117e-38
0.38796109 -0.010779481 0.051278591 1.5952358e-38
0.38614464 -0.010901969 0.051257551 1.5859086e-38
0.38432819 -0.011024449 0.05123651 1.5766533e-38
0.38232502 -0.011265229 0.05322057 1.5581783e-38
0.38050479 -0.01138797 0.05319953 1.5489586e-38
0.37868452 -0.011510711 0.05317843 1.5397389e-38
0.37686425 -0.011633445 0.05315733 1.5305193e-38
0.37504399 -0.011756185 0.05313623 1.5212638e-38
0.37322372 -0.011878926 0.053115129 1.5028964e-38
0.37140346 -0.012001667 0.053094029 1.4844934e-38
0.36979657 -0.012004305 0.051068127 1.4660547e-38
0.34411222 -0.015321765 0.080879986 1.3897335e-39
0.34223858 -0.015448105 0.08085829 2.1276517e-39
0.33929792 -0.016069204 0.088853419 1.8535858e-39
0.33740905 -0.016196571 0.088831484 1.4862438e-39
0.33552015 -0.016323939 0.088809609 1.3940509e-39
0.33363128 -0.016451299 0.088787735 1.3022112e-39
0.33216542 -0.016391587 0.085759759 1.3936838e-39
0.33028224 -0.016518567 0.085737944 1.484806e-39
0.32883352 -0.016457703 0.082710266 1.3018581e-39
0.32724953 -0.016458813 0.080684602 1.1174753e-39
0.32537591 -0.016585145 0.080662847 1.39263e-39
0.32350227 -0.016711485 0.08064115 1.6674078e-39
0.32162863 -0.016837824 0.080619454 1.3915328e-39
0.31975502 -0.016964164 0.080597699 1.023116e-39
0.31756887 -0.017217275 0.082579732 1.1149543e-39
0.31521696 -0.017534416 0.085563362 1.1146082e-39
0.31333381 -0.017661396 0.085541546 1.1146208e-39
0.31145063 -0.017788377 0.085519731 1.1149683e-39
0.30956745 -0.017915357 0.085497916 1.1131635e-39
0.30718696 -0.018234428 0.088481307 1.1142383e-39
0.30529809 -0.018361788 0.088459373 1.3904608e-39
0.30340922 -0.018489163 0.088437498 1.5734143e-39
0.30152032 -0.018616524 0.088415623 1.6638149e-39
0.29963145 -0.018743899 0.088393748 1.7517016e-39
0.29774255 -0.018871259 0.088371873 1.0152197e-39
0.29585367 -0.018998634 0.088349938 1.8726813e-40
0.2945022 -0.018931206 0.085323334 1.8511713e-40
0.29352415 -0.018732894 0.080293775 9.3665592e-41
0.29165053 -0.018859234 0.080272019 1.8371303e-39
0.29033142 -0.018789615 0.077245772 3.5084758e-39
0.28846347 -0.018915575 0.077224135 7.9259193e-39
0.28659558 -0.01904152 0.077202499 1.2347717e-38
0.28472769 -0.019167479 0.077180862 1.4204218e-38
0.28285974 -0.019293424 0.077159166 1.5944418e-38
0.28040874 -0.019617263 0.080141783 1.5854366e-38
0.27971274 -0.019347083 0.074111819 1.5762887e-38
0.2788415 -0.019141566 0.069083452 1.5303708e-38
0.27658865 -0.019399177 0.071064591 1.4745868e-38
0.27513617 -0.019391414 0.069040537 1.4837333e-38
0.27328348 -0.01951633 0.069019079 1.4840954e-38
0.27204823 -0.019441072 0.065993786 1.4474721e-38
0.27020127 -0.019565608 0.065972388 1.4105594e-38
0.26835433 -0.019690152 0.06595099 1.5301257e-38
0.26714197 -0.019613337 0.062925935 1.6415149e-38
0.26594105 -0.019535761 0.059901118 1.8165791e-38
0.2645362 -0.019524794 0.057877541 1.9915705e-38
0.26335621 -0.019445788 0.054852903 2.0838023e-38
0.26153022 -0.019568916 0.054831743 2.1758533e-38
0.25970423 -0.019692045 0.054810584 2.1942924e-38
0.25854719 -0.019611511 0.051786184 2.2035116e-38
0.25672692 -0.019734252 0.051765144 2.1482665e-38
0.25490665 -0.019856993 0.051744044 2.0925862e-38
0.25354373 -0.019843187 0.049720943 1.7795154e-38
0.25241905 -0.019760463 0.046696901 1.4647567e-38
0.25060833 -0.019882564 0.04667592 1.2320402e-38
0.24926637 -0.019867342 0.044653118 9.9610573e-39
0.24698684 -0.020126756 0.046633959 1.2360658e-38
0.24517611 -0.020248849 0.046612978 1.4750894e-38
0.24336538 -0.020370949 0.046591997 1.5122185e-38
0.39386028 -0.011921626 0.046413243 1.669101e-38
0.39188582 -0.012164276 0.048397779 1.6505181e-38
0.38981801 -0.012467969 0.051385045 1.6320427e-38
0.38800156 -0.012590449 0.051364005 1.6136389e-38
0.38618511 -0.012712937 0.051342964 1.6043479e-38
0.38418585 -0.012957256 0.053327262 1.5858373e-38
0.38236558 -0.013079997 0.053306162 1.5765098e-38
0.38054532 -0.013202738 0.053285062 1.5581422e-38
0.37872505 -0.013325479 0.053263962 1.5397032e-38
0.37690479 -0.013448212 0.053242922 1.5396672e-38
0.37508452 -0.013570953 0.053221822 1.5395951e-38
0.37326425 -0.013693694 0.053200722 1.5120801e-38
0.37144399 -0.013816435 0.053179622 1.4845297e-38
0.34415394 -0.017189745 0.080968082 1.3908111e-39
0.34228033 -0.017316084 0.080946386 2.0372525e-39
0.33974001 -0.017761145 0.085935593 1.7621104e-39
0.33785686 -0.017888125 0.085913777 1.3947712e-39
0.33597368 -0.018015105 0.085891962 1.2103842e-39
0.33409053 -0.018142086 0.085870147 1.1185445e-39
0.33220738 -0.018269066 0.085848331 1.3014938e-39
0.33032417 -0.018396046 0.085826457 1.5766457e-39
0.32887536 -0.01832949 0.082798541 1.3011421e-39
0.32729125 -0.018326793 0.080772638 1.0249195e-39
0.32541764 -0.018453125 0.080750942 1.207873e-39
0.32354403 -0.018579464 0.080729246 1.3908196e-39
0.32167035 -0.018705804 0.08070755 1.2064227e-39
0.31948817 -0.018962462 0.082689762 1.0223972e-39
0.31761068 -0.019089062 0.082668006 9.2984841e-40
0.31525892 -0.019411895 0.085651875 8.3729965e-40
0.31337574 -0.019538876 0.085630059 1.1131677e-39
0.31149256 -0.019665856 0.085608244 1.3890301e-39
0.30960941 -0.019792836 0.085586429 1.4819376e-39
0.30822349 -0.019722033 0.082559228 1.5752066e-39
0.30634606 -0.019848634 0.082537472 1.483011e-39
0.3044686 -0.019975226 0.082515717 1.2997043e-39
0.30259115 -0.020101819 0.082493961 1.1099391e-39
0.30071372 -0.020228419 0.082472205 9.2338843e-40
0.30409428 -0.018357795 0.052399158 1.4722392e-39
0.30227405 -0.018480536 0.052378058 1.9292643e-39
0.29454413 -0.020808686 0.085411847 3.6780848e-39
0.28132412 -0.020659748 0.06618762 1.5302317e-38
0.27947718 -0.020784292 0.066166222 1.3275474e-38
0.27703011 -0.021113571 0.069149137 1.1351591e-38
0.27578324 -0.021033373 0.066123426 1.3186504e-38
0.27393633 -0.021157909 0.066102028 1.4936761e-38
0.27208936 -0.021282446 0.06608063 1.4659461e-38
0.27024242 -0.021406982 0.066059232 1.4288539e-38
0.26839548 -0.021531526 0.066037834 1.5394875e-38
0.26718301 -0.021449011 0.063012481 1.6415861e-38
0.26598194 -0.021365743 0.059987426 1.8166509e-38
0.26457703 -0.021350961 0.057963669 1.9915705e-38
0.26339689 -0.021266278 0.054938793 2.0837664e-38
0.26157093 -0.021389406 0.054917634 2.1759971e-38
0.25974494 -0.02151252 0.054896474 2.1851812e-38
0.25858772 -0.021426279 0.051871777 2.1944361e-38
0.25721711 -0.021409187 0.049848437 2.1390474e-38
0.25540066 -0.021531668 0.049827397 2.0744347e-38
0.25427014 -0.021443639 0.046803057 1.7884482e-38
0.25245941 -0.021565739 0.046782076 1.4927737e-38
0.25064865 -0.021687839 0.046761096 1.2988355e-38
0.24883792 -0.021809932 0.046740055 1.1170006e-38
0.24702717 -0.021932032 0.046719074 1.3376635e-38
0.24521644 -0.022054125 0.046698093 1.5675401e-38
0.24340571 -0.022176225 0.046677113 1.5675767e-38
0.39373687 -0.013847452 0.048503876 1.6965442e-38
0.39192614 -0.013969544 0.048482895 1.6781405e-38
0.38985848 -0.014278952 0.051470459 1.6504817e-38
0.38804203 -0.014401432 0.051449418 1.6412619e-38
0.38604665 -0.014649291 0.053433955 1.6227153e-38
0.38422638 -0.014772031 0.053412855 1.6042045e-38
0.38240612 -0.014894772 0.053391755 1.5858011e-38
0.38030034 -0.015206739 0.056378901 1.567326e-38
0.37847438 -0.01532986 0.056357741 1.5397033e-38
0.3766484 -0.015452988 0.056336582 1.548815e-38
0.37512508 -0.015385728 0.053307354 1.5579624e-38
0.37330484 -0.015508469 0.053286314 1.5212998e-38
0.37117046 -0.015822366 0.056273043 1.4844937e-38
0.36934447 -0.015945487 0.056251884 1.4752741e-38
0.34419569 -0.019057717 0.081056178 1.3018707e-39
0.34232205 -0.019184057 0.081034482 1.9454325e-39
0.34018183 -0.01944169 0.083017349 1.6702805e-39
0.3383044 -0.019568283 0.082995594 1.3018567e-39
0.33601564 -0.019892592 0.085980475 1.1178214e-39
0.33413249 -0.020019572 0.08595866 8.4160444e-40
0.33267206 -0.019948069 0.082930326 1.3007889e-39
0.33079463 -0.020074669 0.082908571 1.6681267e-39
0.32920665 -0.020068426 0.08088249 1.3004218e-39
0.327333 -0.020194758 0.080860734 9.3200501e-40
0.32516229 -0.020454455 0.082843304 1.022407e-39
0.32358575 -0.020447437 0.080817342 1.1138781e-39
0.32171211 -0.020573776 0.080795646 1.0209622e-39
0.31983846 -0.020700116 0.08077389 9.2948548e-40
0.31765252 -0.020960834 0.082756281 7.4509702e-40
0.31530085 -0.021289382 0.085740447 5.6143303e-40
0.31341767 -0.021416362 0.085718632 1.111737e-39
0.31202018 -0.02134062 0.082691014 1.5730654e-39
0.31014276 -0.021467213 0.082669258 1.8507243e-39
0.3082653 -0.021593813 0.082647502 2.0336694e-39
0.30638787 -0.021720406 0.082625747 1.5741248e-39
0.30484945 -0.021710817 0.080600202 1.0177336e-39
0.30297577 -0.021837156 0.080578506 5.5281785e-40
0.30595511 -0.020049829 0.052505791 9.4381655e-41
0.30413485 -0.02017257 0.052484751 1.9289616e-39
0.30266884 -0.020158108 0.0504601 3.687828e-39
0.29995719 -0.020624246 0.055447817 7.2697725e-39
0.29813123 -0.02074736 0.055426657 1.0869718e-38
0.29630524 -0.020870488 0.055405498 1.3737132e-38
0.28254241 -0.022081804 0.060265124 1.4744818e-38
0.28070688 -0.022205573 0.060243845 1.1327141e-38
0.27767137 -0.022750217 0.066231668 7.9392947e-39
0.27582443 -0.022874754 0.06621027 1.1528795e-38
0.27397749 -0.022999298 0.066188872 1.5025727e-38
0.27213055 -0.023123834 0.066167474 1.4754176e-38
0.27090648 -0.023036387 0.063141763 1.4474008e-38
0.26906526 -0.023160543 0.063120425 1.548133e-38
0.26722401 -0.0232847 0.063099086 1.6414785e-38
0.26644951 -0.023053627 0.058070958 1.8168303e-38
0.2646178 -0.023177128 0.058049738 1.9915343e-38
0.26278609 -0.023300644 0.058028519 2.0836582e-38
0.26161158 -0.023209866 0.055003464 2.1665617e-38
0.25978559 -0.023332994 0.054982305 2.1759968e-38
0.25862828 -0.023241062 0.051957369 2.1850724e-38
0.25725758 -0.02322017 0.049933851 2.1206081e-38
0.25544113 -0.02334265 0.04991281 2.0558165e-38
0.25362468 -0.023465138 0.04989171 1.788664e-38
0.25249973 -0.023371007 0.046867192 1.5205061e-38
0.25068897 -0.0234931 0.046846211 1.3719137e-38
0.24887826 -0.0236152 0.04682523 1.2268117e-38
0.24706751 -0.0237373 0.046804249 1.4484061e-38
0.24525678 -0.023859393 0.046783268 1.6595204e-38
0.39336827 -0.01597311 0.053603888 1.6505191e-38
0.39154801 -0.016095851 0.053582788 1.6412627e-38
0.38972774 -0.016218591 0.053561687 1.6321149e-38
0.38790751 -0.016341332 0.053540647 1.6227876e-38
0.38581896 -0.016657829 0.056528211 1.6134961e-38
0.38426697 -0.016586807 0.053498447 1.5950929e-38
0.38216701 -0.016904078 0.056485891 1.5859089e-38
0.38034102 -0.017027207 0.056464732 1.5582143e-38
0.37851506 -0.017150328 0.056443572 1.5397393e-38
0.37698591 -0.017077763 0.053414047 1.5211567e-38
0.37516564 -0.017200503 0.053392947 1.5118655e-38
0.37334538 -0.017323244 0.053371847 1.4843506e-38
0.37152511 -0.017445985 0.053350806 1.4568354e-38
0.36938515 -0.01776595 0.056337774 1.5305544e-38
0.36723375 -0.018086713 0.059324563 1.6042387e-38
0.36540204 -0.018210229 0.059303343 1.5581782e-38
0.36357036 -0.018333729 0.059282124 1.5209748e-38
0.34423745 -0.020925704 0.081144273 1.3015358e-39
0.3421011 -0.021186877 0.083127379 1.8539697e-39
0.3398239 -0.021516111 0.086112678 1.577373e-39
0.33794075 -0.021643091 0.086090863 1.2085835e-39
0.3360576 -0.021770071 0.086069047 1.4837186e-39
0.33417442 -0.021897051 0.086047232 1.7570909e-39
0.33229128 -0.022024032 0.086025357 2.1294734e-39
0.33083645 -0.021946449 0.082996845 2.4946518e-39
0.32895899 -0.022073042 0.08297509 1.851432e-39
0.32708156 -0.022199634 0.082953334 1.2986267e-39
0.32520413 -0.022326235 0.082931578 1.2060752e-39
0.32362747 -0.022315424 0.080905437 1.1124446e-39
0.32144922 -0.02257942 0.082888067 1.1128005e-39
0.31988022 -0.022568103 0.080861986 1.2046318e-39
0.31769434 -0.022832613 0.082844555 1.0202392e-39
0.31581688 -0.022959206 0.0828228 8.3658079e-40
0.31393945 -0.023085807 0.082801044 1.1117398e-39
0.31206203 -0.023212399 0.082779288 1.3894014e-39
0.31018457 -0.023338992 0.082757533 1.2964911e-39
0.30830711 -0.023465592 0.082735777 1.2979121e-39
0.30642968 -0.023592185 0.082714021 1.7516931e-39
0.30489117 -0.023578804 0.080688298 2.2969664e-39
0.30301753 -0.023705143 0.080666602 3.8660606e-39
0.30599567 -0.021864604 0.052591383 5.5126983e-39
0.30417538 -0.021987345 0.052570283 7.2773591e-39
0.30270928 -0.021969076 0.050545454 9.0408904e-39
0.30089283 -0.022091556 0.050524414 1.1155621e-38
0.29871461 -0.02235556 0.052507043 1.3286564e-38
0.29780838 -0.022123862 0.047476888 1.4479062e-38
0.29599762 -0.022245955 0.047455907 1.5772632e-38
0.2825833 -0.023911785 0.060351431 1.45665e-38
0.28074777 -0.024035554 0.060330153 1.1146281e-38
0.27771252 -0.024591591 0.066318512 7.8345126e-39
0.27586555 -0.024716135 0.066297114 1.1340453e-38
0.27401865 -0.024840672 0.066275716 1.4842775e-38
0.27217168 -0.024965208 0.066254258 1.4475808e-38
0.27094749 -0.024872061 0.063228309 1.4198147e-38
0.26910627 -0.024996217 0.063206971 1.521228e-38
0.26789922 -0.024901923 0.06018126 1.6327613e-38
0.26606372 -0.025025692 0.060159981 1.8074672e-38
0.26465863 -0.02500331 0.058135867 1.9821711e-38
0.26282692 -0.025126826 0.058114648 2.0559994e-38
0.26165229 -0.025030341 0.055089295 2.1387951e-38
0.2598263 -0.025153454 0.055068135 2.1482299e-38
0.25866884 -0.025055829 0.052042961 2.1665972e-38
0.25684857 -0.02517857 0.052021861 2.1112806e-38
0.25616151 -0.02493209 0.046994269 2.0650001e-38
0.25435078 -0.025054183 0.046973288 1.7975969e-38
0.25254005 -0.025176283 0.046952307 1.5296561e-38
0.25119406 -0.025149915 0.044928968 1.39111e-38
0.24938715 -0.025271755 0.044907987 1.2546164e-38
0.24758022 -0.025393594 0.044887066 1.4481566e-38
0.24648753 -0.025291588 0.041862607 1.65041e-38
0.24468634 -0.025413048 0.041841745 1.613568e-38
0.39498955 -0.017862689 0.05671984 1.6128507e-38
0.39340883 -0.017787885 0.05368948 1.5951293e-38
0.3913376 -0.018108945 0.05667752 1.6043128e-38
0.38951162 -0.018232074 0.056656361 1.6043846e-38
0.38768566 -0.018355187 0.056635201 1.6043128e-38
0.38585967 -0.018478315 0.056614041 1.5951646e-38
0.38403368 -0.018601444 0.056592882 1.5859806e-38
0.38220769 -0.018724572 0.056571722 1.576689e-38
0.3803817 -0.0188477 0.056550562 1.5582138e-38
0.37855574 -0.018970814 0.056529403 1.5304835e-38
0.37672976 -0.019093942 0.056508243 1.4933545e-38
0.37490377 -0.01921707 0.056487083 1.4566203e-38
0.37307778 -0.019340198 0.056465924 1.447365e-38
0.37125182 -0.019463327 0.056444764 1.4292485e-38
0.36942583 -0.01958644 0.056423604 1.5858704e-38
0.36759984 -0.019709568 0.056402445 1.7421e-38
0.36544287 -0.020036396 0.059389472 1.6782116e-38
0.36361116 -0.020159911 0.059368193 1.613279e-38
0.36120874 -0.020624232 0.06436038 1.5395218e-38
0.35936749 -0.020748388 0.064339042 1.4565448e-38
0.34427917 -0.022793677 0.081232369 1.3033239e-39
0.34174901 -0.023266617 0.086223066 1.7617713e-39
0.33986586 -0.023393597 0.086201191 1.4844585e-39
0.33757737 -0.023729306 0.089186728 1.1171095e-39
0.33568847 -0.023856666 0.089164853 1.9425472e-39
0.33421636 -0.023774538 0.086135745 2.6815584e-39
0.33233321 -0.023901518 0.08611393 3.0564576e-39
0.33087826 -0.023818228 0.08308512 3.3269236e-39
0.32900083 -0.023944821 0.083063364 2.4957238e-39
0.32741648 -0.023930717 0.081036925 1.5748535e-39
0.32524595 -0.024198014 0.083019853 1.2986267e-39
0.32366922 -0.024183396 0.080993533 1.0209678e-39
0.32179558 -0.024309736 0.080971777 1.2961156e-39
0.31992197 -0.024436075 0.080950081 1.4783489e-39
0.31773615 -0.024704393 0.08293283 1.2943149e-39
0.31585872 -0.024830986 0.082911074 1.017735e-39
0.31398129 -0.024957586 0.082889318 1.1095747e-39
0.31242743 -0.024941426 0.080863237 1.1102922e-39
0.31022638 -0.025210772 0.082845807 8.311998e-40
0.30834895 -0.025337372 0.082824051 4.6531937e-40
0.30647153 -0.025463965 0.082802296 2.0208097e-39
0.30916846 -0.02364957 0.055725336 3.5084856e-39
0.30734247 -0.023772698 0.055704176 7.1933989e-39
0.30638266 -0.023535091 0.050673008 1.086864e-38
0.3045662 -0.023657572 0.050651908 1.2627176e-38
0.30274975 -0.023780052 0.050630867 1.4374929e-38
0.30147016 -0.02368493 0.047604024 1.5024602e-38
0.29965943 -0.023807023 0.047583044 1.5670352e-38
0.2978487 -0.023929123 0.047562063 1.5303758e-38
0.29640731 -0.023905385 0.045537353 1.4939981e-38
0.2946004 -0.024027217 0.045516431 1.4470377e-38
0.2715959 -0.02702957 0.069346011 1.429178e-38
0.27036586 -0.026931118 0.066319704 1.3923714e-38
0.26851892 -0.027055662 0.066298306 1.5026093e-38
0.26730603 -0.026956048 0.063272238 1.6137479e-38
0.26610461 -0.026855659 0.060246289 1.7888844e-38
0.26469943 -0.026829477 0.058221996 1.9639471e-38
0.26286772 -0.026952993 0.058200777 2.0377757e-38
0.26169294 -0.026850831 0.055175185 2.1020965e-38
0.25986695 -0.026973944 0.055154026 2.1207149e-38
0.25870937 -0.026870612 0.052128553 2.1390462e-38
0.25733849 -0.026842114 0.050104618 2.1020971e-38
0.25620186 -0.026737351 0.047079444 2.0649285e-38
0.25439113 -0.026859444 0.047058463 1.8070318e-38
0.2525804 -0.026981544 0.047037423 1.538947e-38
0.25123429 -0.026951376 0.045013905 1.4082928e-38
0.24942739 -0.027073216 0.044992983 1.2817722e-38
0.24762046 -0.027195055 0.044972003 1.4574837e-38
0.24652766 -0.027087357 0.041947305 1.631971e-38
0.39662254 -0.0197629 0.059836388 1.7063365e-38
0.39503023 -0.019683149 0.05680573 1.7057238e-38
0.39320427 -0.019806277 0.05678457 1.7148009e-38
0.39137828 -0.01992939 0.056763411 1.6595212e-38
0.3895523 -0.020052519 0.056742251 1.6043484e-38
0.38772631 -0.020175647 0.056721091 1.595165e-38
0.38590032 -0.020298775 0.056699932 1.5951645e-38
0.38407436 -0.020421904 0.056678772 1.5859085e-38
0.38224837 -0.020545017 0.056657612 1.5674332e-38
0.38042238 -0.020668145 0.056636453 1.5490297e-38
0.37859643 -0.020791274 0.056615293 1.5305907e-38
0.37677044 -0.020914402 0.056594133 1.484278e-38
0.37494445 -0.021037515 0.056572974 1.4382169e-38
0.37311846 -0.021160644 0.056551754 1.4198141e-38
0.37129247 -0.021283772 0.056530595 1.4014104e-38
0.36946651 -0.0214069 0.056509435 1.4752367e-38
0.36731535 -0.021739077 0.05949682 1.5398831e-38
0.36548367 -0.021862578 0.059475541 1.5122275e-38
0.36309099 -0.022335764 0.064468265 1.4940389e-38
0.36159205 -0.022249725 0.06143868 1.5032932e-38
0.35998857 -0.02223311 0.059411883 1.5125439e-38
0.35815686 -0.022356626 0.059390664 1.3186085e-38
0.35632515 -0.022480141 0.059369445 1.1250378e-38
0.35449347 -0.022603642 0.059348226 1.1340072e-38
0.34244728 -0.024788003 0.081298709 1.8539599e-39
0.3403073 -0.025057036 0.083282173 1.6692015e-39
0.33802468 -0.025398057 0.086267948 1.577366e-39
0.3361415 -0.025525037 0.086246133 2.3131262e-39
0.33425832 -0.025652017 0.086224258 3.0514255e-39
0.33279753 -0.025563415 0.08319515 3.6056951e-39
0.3309201 -0.025690015 0.083173394 4.2506735e-39
0.32933187 -0.025672372 0.081146717 2.8645077e-39
0.3274582 -0.025798712 0.081125021 1.5734228e-39
0.32558459 -0.025925044 0.081103325 1.3883084e-39
0.32295936 -0.026413906 0.086093366 1.2950408e-39
0.32153291 -0.026322987 0.083064616 1.2936073e-39
0.31996369 -0.026304062 0.081038177 1.2918108e-39
0.31777799 -0.02657618 0.083021104 1.8438972e-39
0.31590056 -0.026702773 0.082999349 2.3913172e-39
0.31402311 -0.026829366 0.082977593 3.220701e-39
0.31246918 -0.026809413 0.080951333 4.0493728e-39
0.31026822 -0.027082559 0.082934082 5.340092e-39
0.3083908 -0.027209152 0.082912326 6.6190417e-39
0.30651334 -0.027335752 0.08289057 8.0152955e-39
0.31005603 -0.025101092 0.050800502 9.4104324e-39
0.30789703 -0.025371406 0.052783668 1.1341516e-38
0.30642313 -0.025346059 0.050758362 1.3273651e-38
0.30513197 -0.025246028 0.047731102 1.3826818e-38
0.30332124 -0.025368121 0.047710121 1.4378921e-38
0.30151051 -0.025490221 0.04768914 1.3917605e-38
0.29969978 -0.025612313 0.047668159 1.3464518e-38
0.29825449 -0.025585029 0.04564327 1.6044153e-38
0.29644758 -0.025706861 0.045622349 1.8621261e-38
0.29520026 -0.025603872 0.042595565 1.6775915e-38
0.29339904 -0.025725316 0.042574704 1.4926683e-38
0.2716372 -0.028876659 0.069433153 1.5212646e-38
0.27040702 -0.028772492 0.066406548 1.5760062e-38
0.26856005 -0.028897036 0.06638515 1.6038787e-38
0.26734707 -0.028791722 0.063358784 1.6317199e-38
0.2661455 -0.028685641 0.060332596 1.8072511e-38
0.26474023 -0.028655659 0.058308125 1.9826009e-38
0.26355961 -0.028548148 0.055282176 2.0377036e-38
0.26173365 -0.028671276 0.055261016 2.1019527e-38
0.26057017 -0.028562631 0.052235246 2.120607e-38
0.25919545 -0.028530601 0.050211072 2.1483373e-38
0.25737897 -0.028653082 0.050190032 2.1021328e-38
0.25624222 -0.028542642 0.047164559 2.065108e-38
0.25443149 -0.028664734 0.047143579 1.816108e-38
0.25262076 -0.028786834 0.047122598 1.5668921e-38
0.25127459 -0.02875286 0.045098841 1.4281658e-38
0.24946766 -0.028874699 0.04507792 1.2913499e-38
0.24766073 -0.028996538 0.045056999 1.4664518e-38
0.24656779 -0.028883126 0.042032003 1.6411903e-38
0.40321767 -0.021854099 0.071044564 1.5122257e-38
0.40136504 -0.02197903 0.071023107 1.5765119e-38
0.39811534 -0.021812525 0.064960241 1.7060865e-38
0.39666337 -0.021589082 0.059922516 1.779482e-38
0.39483166 -0.021712583 0.059901297 1.8072468e-38
0.39324495 -0.021626767 0.056870401 1.8250043e-38
0.39141896 -0.02174988 0.056849241 1.7146586e-38
0.38959298 -0.021873008 0.056828082 1.5951647e-38
0.38776702 -0.021996137 0.056806922 1.5951647e-38
0.38594103 -0.022119265 0.056785762 1.5950926e-38
0.38411504 -0.022242393 0.056764603 1.5767252e-38
0.38228905 -0.022365507 0.056743443 1.5582501e-38
0.38046306 -0.022488635 0.056722283 1.5398468e-38
0.37863711 -0.022611763 0.056701124 1.5212995e-38
0.37681112 -0.022734892 0.056679964 1.4658028e-38
0.37498513 -0.022858005 0.056658804 1.4106657e-38
0.37315914 -0.022981133 0.056637645 1.392263e-38
0.37133318 -0.023104262 0.056616485 1.3738238e-38
0.36918786 -0.023441728 0.059604168 1.3554564e-38
0.36735618 -0.023565244 0.059582889 1.3371256e-38
0.36552447 -0.02368876 0.05956167 1.3550628e-38
0.36369276 -0.02381226 0.059540451 1.3650729e-38
0.36163294 -0.024079692 0.061524987 1.4670981e-38
0.35979745 -0.024203461 0.061503708 1.567287e-38
0.35796192 -0.02432723 0.06148243 1.3185009e-38
0.35636598 -0.024306308 0.059455574 1.069972e-38
0.35453427 -0.024429824 0.059434354 1.0878377e-38
0.342489 -0.026655983 0.081386805 1.8543158e-39
0.33994979 -0.027148556 0.086378276 1.9450667e-39
0.33806664 -0.027275536 0.086356461 2.0372582e-39
0.33618343 -0.027402516 0.086334646 2.6815402e-39
0.33430028 -0.027529497 0.08631283 3.3258404e-39
0.33241713 -0.027656477 0.086291015 4.2478009e-39
0.33053395 -0.027783457 0.0862692 5.0707176e-39
0.32908449 -0.027688388 0.083239913 3.3211628e-39
0.32720703 -0.027814981 0.083218157 1.48086e-39
0.32488447 -0.028164405 0.086203694 1.5701802e-39
0.32300133 -0.028291386 0.086181879 1.567669e-39
0.32157472 -0.028194766 0.08315289 1.290729e-39
0.32000545 -0.028172042 0.081126273 1.0174001e-39
0.3181318 -0.028298382 0.081104577 2.3978263e-39
0.31625819 -0.028424714 0.081082821 3.7775153e-39
0.31438455 -0.028551053 0.081061125 5.4244586e-39
0.31251091 -0.028677393 0.081039429 7.004679e-39
0.3106373 -0.028803732 0.081017733 9.8612694e-39
0.30876365 -0.028930072 0.080995977 1.271217e-38
0.31241524 -0.026562896 0.0479002 1.4010476e-38
0.3100965 -0.02691206 0.050885916 1.5207583e-38
0.30828005 -0.02703454 0.050864816 1.5488129e-38
0.3064636 -0.027157027 0.050843775 1.5670009e-38
0.30517232 -0.027051289 0.047816217 1.5027881e-38
0.30336159 -0.027173381 0.047795236 1.4285646e-38
0.30155087 -0.027295481 0.047774255 1.2709718e-38
0.29974014 -0.027417574 0.047753274 1.116469e-38
0.29829472 -0.02738649 0.045728207 1.6787135e-38
0.29648781 -0.027508322 0.045707285 2.2301557e-38
0.29468089 -0.027630169 0.045686364 1.9085509e-38
0.29287398 -0.027752008 0.045665383 1.5854396e-38
0.29106706 -0.027873848 0.045644462 1.5207592e-38
0.26982582 -0.030848663 0.069498777 1.7511403e-38
0.26860121 -0.03073841 0.066471994 1.705222e-38
0.26738811 -0.030627411 0.06344533 1.6506258e-38
0.26618639 -0.030515607 0.060418904 1.8257977e-38
0.26435086 -0.030639376 0.060397625 1.9914975e-38
0.26360029 -0.030368637 0.055368006 2.0468872e-38
0.2617743 -0.030491766 0.055346847 2.0928768e-38
0.26061076 -0.030377422 0.052320778 2.1297546e-38
0.25923589 -0.030341569 0.050296485 2.1573772e-38
0.25741941 -0.030464049 0.050275445 2.1112802e-38
0.25628254 -0.030347902 0.047249675 2.0557449e-38
0.25447181 -0.030469995 0.047228694 1.8254354e-38
0.25266108 -0.030592095 0.047207713 1.5852958e-38
0.25085032 -0.030714188 0.047186732 1.4460677e-38
0.24903961 -0.030836288 0.047165751 1.3003904e-38
0.24770097 -0.030797999 0.045141935 1.4758146e-38
0.24589406 -0.030919839 0.045121014 1.6503381e-38
0.40422407 -0.024496358 0.084198415 1.7245926e-38
0.4034695 -0.023488458 0.068121254 1.7048277e-38
0.40162256 -0.023612995 0.068099856 1.6780315e-38
0.39977562 -0.023737531 0.068078458 1.6502299e-38
0.39815637 -0.023648199 0.065046847 1.6595212e-38
0.39654854 -0.023558091 0.062015414 1.6686337e-38
0.39487246 -0.02353875 0.059987426 1.6779254e-38
0.39328563 -0.023447227 0.056956232 1.6867498e-38
0.39145964 -0.023570355 0.056935072 1.6317916e-38
0.38963366 -0.023693483 0.056913912 1.5767259e-38
0.38780767 -0.023816597 0.056892753 1.576618e-38
0.38598168 -0.023939725 0.056871593 1.5765461e-38
0.38415572 -0.024062853 0.056850433 1.5582147e-38
0.38232973 -0.024185982 0.056829274 1.5489593e-38
0.38050374 -0.02430911 0.056808114 1.5306279e-38
0.37867779 -0.024432223 0.056786954 1.5122594e-38
0.3768518 -0.024555352 0.056765795 1.4567261e-38
0.37502581 -0.02467848 0.056744635 1.4105934e-38
0.37319982 -0.024801608 0.056723475 1.3921907e-38
0.37106037 -0.025144394 0.059711516 1.3829356e-38
0.36922866 -0.025267895 0.059690237 1.3646043e-38
0.36739698 -0.025391411 0.059669018 1.3460921e-38
0.36556527 -0.025514927 0.059647799 1.336835e-38
0.36373359 -0.025638428 0.059626579 1.3369826e-38
0.35983834 -0.026033442 0.061590016 1.4108442e-38
0.35800281 -0.026157212 0.061568737 1.2632203e-38
0.35640678 -0.026132476 0.059541702 1.1250011e-38
0.35457507 -0.026255991 0.059520423 1.0602144e-38
0.34148136 -0.029124122 0.08949697 1.9461471e-39
0.33999175 -0.029026043 0.086466849 1.8532312e-39
0.33770362 -0.029378857 0.089453161 1.6688386e-39
0.33581471 -0.029506218 0.089431286 2.0368924e-39
0.33392584 -0.029633578 0.089409411 2.4042428e-39
0.33245909 -0.029533964 0.086379528 2.7723093e-39
0.33057588 -0.029660944 0.086357713 3.0452962e-39
0.3291263 -0.029560167 0.083328187 2.4914036e-39
0.32754171 -0.029534671 0.081301212 1.9385941e-39
0.3256681 -0.029661011 0.081279516 1.4761853e-39
0.32304326 -0.030168872 0.086270452 1.0123443e-39
0.32192081 -0.02991369 0.081236064 2.2083581e-39
0.3200472 -0.030040029 0.081214368 3.4969768e-39
0.31817356 -0.030166369 0.081192672 6.5426667e-39
0.31629992 -0.030292708 0.081170917 9.5804254e-39
0.3144263 -0.03041904 0.08114922 1.0414132e-38
0.31821111 -0.027847733 0.046043515 1.1346486e-38
0.31640419 -0.027969573 0.046022594 1.2816939e-38
0.31426632 -0.028246071 0.048006296 1.4388586e-38
0.31245559 -0.028368164 0.047985315 1.5212633e-38
0.31013697 -0.028723035 0.05097127 1.6134941e-38
0.30832052 -0.028845515 0.050950229 1.5951277e-38
0.30650407 -0.028967995 0.050929189 1.5767251e-38
0.30521265 -0.028856549 0.047901392 1.5304489e-38
0.30340192 -0.02897865 0.047880411 1.4934589e-38
0.30159119 -0.02910075 0.04785943 1.3731353e-38
0.30014193 -0.029066127 0.045834124 1.253326e-38
0.29833499 -0.029187966 0.045813203 1.7427878e-38
0.29652807 -0.029309813 0.045792222 2.2314891e-38
0.29528052 -0.029195409 0.042764962 2.000286e-38
0.29291421 -0.029553492 0.04575038 1.7686832e-38
0.2911073 -0.029675331 0.045729399 1.5849353e-38
0.26986706 -0.032695737 0.06958586 1.6227869e-38
0.26864237 -0.032579791 0.066558838 1.5950924e-38
0.2667954 -0.032704327 0.06653744 1.577445e-38
0.2662273 -0.032345589 0.060505211 1.7706247e-38
0.26482186 -0.032308009 0.058480382 1.9636959e-38
0.26364097 -0.032189112 0.055453897 2.037596e-38
