# .PCD v0.7 - Point Cloud Data file format
VERSION 0.7
FIELDS x y z rgb
SIZE 4 4 4 4
TYPE F F F F
COUNT 1 1 1 1
WIDTH 1026
HEIGHT 1
VIEWPOINT 0 0 0 1 0 0 0
POINTS 1026
DATA ascii
0.17146057 0.27462605 0.17288321 4.7037834e-39
0.17021176 0.27385539 0.16989726 4.6112304e-39
0.168138 0.27371556 0.16987318 4.5193851e-39
0.16522211 0.27420539 0.17281085 4.2431514e-39
0.16314262 0.27406517 0.17278677 3.8747262e-39
0.16191667 0.27329606 0.16980106 3.780374e-39
0.15984294 0.27315623 0.1697771 3.5952582e-39
0.15776914 0.27301639 0.16975302 2.7662178e-39
0.15656611 0.27224883 0.16676778 1.9429115e-39
0.15654308 0.27064559 0.15983433 5.4434083e-39
0.15654674 0.26904413 0.15290111 8.8553935e-39
0.15450537 0.26890647 0.15287751 8.9580723e-39
0.15335757 0.26814264 0.14989275 8.9505445e-39
0.15132195 0.26800537 0.14986914 8.5814159e-39
0.14928633 0.2678681 0.14984554 8.1200888e-39
0.14725065 0.26773086 0.14982194 7.4793941e-39
0.14429855 0.26821825 0.15275925 6.7407627e-39
0.14225721 0.26808059 0.15273553 6.3737766e-39
0.13928792 0.26856682 0.15567237 5.9106559e-39
0.13724086 0.26842877 0.15564865 5.1766922e-39
0.13394132 0.26912156 0.15957242 4.3440547e-39
0.1318866 0.26898301 0.15954858 3.9734645e-39
0.13109961 0.26801467 0.15557748 3.5128563e-39
0.12905255 0.26787665 0.15555376 3.1455199e-39
0.12796766 0.26711705 0.15256995 2.7756528e-39
0.12592629 0.2669794 0.15254635 2.4994162e-39
0.12485856 0.26622096 0.14956242 2.1288386e-39
0.12282294 0.26608369 0.14953893 1.7593372e-39
0.12078726 0.26594645 0.14951533 1.2983605e-39
0.11875165 0.26580918 0.14949173 1.4813084e-39
0.11571947 0.26629117 0.15242797 1.571709e-39
0.11468035 0.26553464 0.14944452 1.3880366e-39
0.11264467 0.2653974 0.14942092 1.1128888e-39
0.11060905 0.26526013 0.14939731 1.3873191e-39
0.10755402 0.26574057 0.15233344 1.5724292e-39
0.10551268 0.26560292 0.15230972 1.6653451e-39
0.10347131 0.26546529 0.15228611 1.7578995e-39
0.10246646 0.26471108 0.14930302 2.1259617e-39
0.09938857 0.26518998 0.15223879 2.4929226e-39
0.09734723 0.26505235 0.15221518 2.3985535e-39
0.09530583 0.26491469 0.15219146 2.3095949e-39
0.093264461 0.26477703 0.15216786 3.4144977e-39
0.17058292 0.27498654 0.18386608 4.7034289e-39
0.17040709 0.2733863 0.17693025 4.7030715e-39
0.16831997 0.27324557 0.17690605 4.5190432e-39
0.16623288 0.27310485 0.17688197 4.3353582e-39
0.16414577 0.27296412 0.17685777 4.1509557e-39
0.16205865 0.27282336 0.17683357 3.8750835e-39
0.16110945 0.27185172 0.17286044 3.8732828e-39
0.15902999 0.2717115 0.17283636 3.7792992e-39
0.15781534 0.27094889 0.16985053 3.2290078e-39
0.15661219 0.27018702 0.16686505 2.5854153e-39
0.15571254 0.26921871 0.1628924 5.9072493e-39
0.15659222 0.26700893 0.15299708 9.1395208e-39
0.15455085 0.26687127 0.15297347 8.9555836e-39
0.15340292 0.26611313 0.14998847 8.7679861e-39
0.15136731 0.26597589 0.14996487 8.3063172e-39
0.14933169 0.26583862 0.14994127 7.7545867e-39
0.14729601 0.26570135 0.14991766 7.2035737e-39
0.14526039 0.26556408 0.14989406 6.6521908e-39
0.14230269 0.26604539 0.15283149 5.823149e-39
0.13933352 0.26652589 0.15576857 4.9955478e-39
0.13728645 0.26638788 0.15574485 4.0700111e-39
0.13523939 0.26624984 0.15572113 3.2431049e-39
0.1331923 0.26611182 0.15569741 3.1429891e-39
0.13114521 0.26597378 0.15567368 3.0497341e-39
0.12909815 0.26583573 0.15564996 2.6824062e-39
0.12801313 0.26508185 0.15266591 2.4068885e-39
0.12597176 0.2649442 0.15264231 2.2221301e-39
0.12490392 0.26419148 0.14965814 2.0362983e-39
0.1228683 0.26405421 0.14963454 1.6675129e-39
0.12083262 0.26391694 0.14961094 1.3902058e-39
0.118797 0.26377967 0.14958745 1.5727936e-39
0.11676133 0.26364243 0.14956385 1.7553856e-39
0.11472571 0.26350516 0.14954025 1.4795175e-39
0.11269003 0.26336789 0.14951664 1.2043712e-39
0.11065441 0.26323062 0.14949304 1.295848e-39
0.1086188 0.26309338 0.14946944 1.4795217e-39
0.10658312 0.26295611 0.14944583 1.5724362e-39
0.1045475 0.26281884 0.14942223 1.6646277e-39
0.10251182 0.26268157 0.14939874 2.0337605e-39
0.10047621 0.2625443 0.14937514 2.3088887e-39
0.098440528 0.26240706 0.14935154 2.3081502e-39
0.09640491 0.26226979 0.14932793 2.4017877e-39
0.094369233 0.26213253 0.14930433 3.5063318e-39
0.17062971 0.27289242 0.18396491 4.6112332e-39
0.17045361 0.2713055 0.17702836 4.6108745e-39
0.16836649 0.27116477 0.17700428 4.4268448e-39
0.16544321 0.27164266 0.17994231 4.1509683e-39
0.1633504 0.27150154 0.17991811 4.0587629e-39
0.16210517 0.27074257 0.17693168 3.874722e-39
0.16001806 0.27060184 0.17690748 3.966905e-39
0.1590763 0.2696383 0.17293411 3.9669106e-39
0.15786153 0.26888138 0.16994804 3.6006504e-39
0.1557878 0.26874155 0.16992408 3.2350769e-39
0.15575847 0.2671645 0.1629892 6.3685792e-39
0.15457991 0.26641002 0.16000372 9.4103596e-39
0.1537087 0.26545125 0.15603095 9.0488442e-39
0.15344828 0.26408362 0.1500842 8.5839494e-39
0.15141267 0.26394638 0.15006059 8.0297303e-39
0.14937699 0.26380911 0.15003699 7.3868846e-39
0.14734131 0.26367185 0.15001339 6.9273526e-39
0.14530569 0.26353458 0.14998978 6.4670835e-39
0.14234817 0.26401019 0.15292746 5.2710556e-39
0.14030677 0.26387253 0.15290385 4.068181e-39
0.1382654 0.26373491 0.15288025 3.0475425e-39
0.13622403 0.26359725 0.15285653 2.0351898e-39
0.13418269 0.26345959 0.15283293 2.3053069e-39
0.13214132 0.26332194 0.1528092 2.4933037e-39
0.13009995 0.26318431 0.1527856 2.3110901e-39
0.12805861 0.26304665 0.15276188 2.0362997e-39
0.12601724 0.262909 0.15273827 1.9451802e-39
0.12494928 0.26216197 0.14975387 1.8519056e-39
0.1229136 0.2620247 0.14973027 1.6671556e-39
0.12087798 0.26188743 0.14970666 1.4813252e-39
0.1188423 0.26175016 0.14968306 1.7553884e-39
0.11680669 0.26161292 0.14965957 1.9386978e-39
0.11477107 0.26147565 0.14963597 1.6624711e-39
0.114079 0.26052892 0.14566535 1.2954906e-39
0.11069977 0.26120111 0.14958876 1.2951347e-39
0.1086641 0.26106387 0.14956516 1.2962137e-39
0.10662842 0.2609266 0.14954156 1.480605e-39
0.1045928 0.26078933 0.14951795 1.5738754e-39
0.10255718 0.26065207 0.14949435 1.851893e-39
0.1005215 0.2605148 0.14947075 2.1259267e-39
0.098485887 0.26037756 0.14944726 2.3074075e-39
0.096450269 0.26024029 0.14942366 2.401415e-39
0.094414592 0.26010302 0.14940006 3.5045382e-39
0.16876578 0.27223122 0.19097668 4.5193949e-39
0.16857606 0.27065668 0.18403929 4.4271993e-39
0.16758266 0.26969728 0.18006498 4.2428095e-39
0.16437513 0.27037343 0.18399066 4.1498894e-39
0.16143298 0.27084434 0.18692881 3.9665687e-39
0.16130418 0.26927394 0.17999226 3.8740017e-39
0.16006455 0.26852101 0.17700559 3.8761387e-39
0.15797746 0.26838028 0.17698139 3.9697749e-39
0.15704313 0.26742485 0.17300779 3.6013623e-39
0.15583399 0.26667404 0.17002147 3.2318455e-39
0.15580437 0.26511031 0.16308612 6.3682205e-39
0.15462568 0.2643615 0.16010028 9.5025482e-39
0.15375429 0.26341033 0.15612715 9.1370826e-39
0.15260044 0.26266322 0.1531418 8.7651023e-39
0.15145802 0.26191688 0.1501562 8.0300834e-39
0.14942235 0.26177961 0.15013272 7.3861671e-39
0.14738667 0.26164237 0.15010911 6.5600134e-39
0.14535105 0.2615051 0.15008551 5.7323995e-39
0.14331543 0.26136783 0.15006191 4.3440855e-39
0.14127982 0.26123056 0.1500383 2.9578608e-39
0.13831088 0.26169968 0.15297621 2.2141258e-39
0.13626951 0.26156202 0.15295249 1.5644713e-39
0.13422817 0.26142436 0.15292889 2.0286808e-39
0.1321868 0.26128671 0.15290517 2.4907576e-39
0.13014543 0.26114908 0.15288156 2.2163567e-39
0.12810409 0.26101142 0.15285784 1.8497406e-39
0.12606272 0.26087376 0.15283424 1.7589883e-39
0.12499464 0.26013246 0.14984959 1.6675143e-39
0.12295896 0.25999519 0.14982599 1.4827686e-39
0.12092334 0.25985795 0.14980239 1.3884135e-39
0.11888766 0.25972068 0.14977878 1.4798819e-39
0.11685205 0.25958341 0.14975518 1.6628326e-39
0.11481643 0.25944614 0.1497317 1.4787987e-39
0.11278075 0.2593089 0.14970809 1.3866101e-39
0.11074513 0.25917163 0.14968449 1.295855e-39
0.10870945 0.25903437 0.14966089 1.2965752e-39
0.10667378 0.2588971 0.14963728 1.4809665e-39
0.10463816 0.25875983 0.14961368 1.6653577e-39
0.10260254 0.25862259 0.14959008 1.8511839e-39
0.10056686 0.25848532 0.14956647 2.1266358e-39
0.098531246 0.25834805 0.14954287 2.2162628e-39
0.096495628 0.25821078 0.14951938 2.4014024e-39
0.16499209 0.27296296 0.2049033 4.4268336e-39
0.16669908 0.26998127 0.19105154 4.1509655e-39
0.16458529 0.26983872 0.1910271 4.1502467e-39
0.16135696 0.27050585 0.19495291 4.0584042e-39
0.16035771 0.26955366 0.19097811 3.9665603e-39
0.16022101 0.26799604 0.18404073 3.8750709e-39
0.15925798 0.2670463 0.18006641 3.8768534e-39
0.15802395 0.26629949 0.1770795 3.8779352e-39
0.15708944 0.26535165 0.17310554 3.602793e-39
0.15588018 0.26460651 0.17011899 3.2372237e-39
0.15468237 0.26386213 0.16713268 6.3696554e-39
0.15467146 0.26231301 0.16019696 9.5011105e-39
0.15379992 0.26136944 0.15622348 9.232141e-39
0.15264592 0.26062801 0.15323776 8.8598034e-39
0.15150338 0.25988737 0.15025192 8.1222762e-39
0.14946771 0.2597501 0.15022832 7.3872377e-39
0.1486457 0.25880986 0.14625555 6.1933819e-39
0.14539641 0.25947559 0.15018123 4.9897772e-39
0.14336079 0.25933832 0.15015763 3.4148859e-39
0.14132518 0.25920105 0.15013403 1.754996e-39
0.1392895 0.25906381 0.15011042 1.3790108e-39
0.13725382 0.25892654 0.15008682 1.0156205e-39
0.1352182 0.25878927 0.15006322 1.7542575e-39
0.13318253 0.258652 0.15003961 2.4903918e-39
0.13019091 0.25911388 0.15297753 2.1223478e-39
0.12814957 0.25897622 0.15295392 1.6642577e-39
0.1261082 0.25883856 0.1529302 1.573867e-39
0.12503999 0.25810295 0.14994532 1.390919e-39
0.12300432 0.25796568 0.14992172 1.3909261e-39
0.12228146 0.25703213 0.14595002 1.29765e-39
0.12025341 0.25689539 0.14592654 1.2969284e-39
0.1182254 0.25675863 0.14590305 1.2962039e-39
0.11619738 0.2566219 0.14587957 1.3869548e-39
0.11416936 0.25648513 0.14585608 1.4791574e-39
0.11214131 0.2563484 0.1458326 1.3884065e-39
0.11011332 0.25621164 0.14580911 1.2047383e-39
0.10671914 0.25686759 0.14973301 1.4809665e-39
0.10468352 0.25673032 0.1497094 1.6660724e-39
0.10402927 0.25580141 0.14573854 1.8518944e-39
0.10200122 0.25566465 0.14571506 2.0337297e-39
0.099973202 0.25552791 0.14569157 2.213414e-39
0.096540987 0.25618127 0.14961499 2.400336e-39
0.16824445 0.27192226 0.2090047 4.5204571e-39
0.16609636 0.27177742 0.20897979 4.6115738e-39
0.16503978 0.27082893 0.20500392 4.4271825e-39
0.16372362 0.27008232 0.20201582 4.2427926e-39
0.16269559 0.2691358 0.19804031 4.0591188e-39
0.16056845 0.26899236 0.19801563 3.9672763e-39
0.1592828 0.26824778 0.19502813 3.8754338e-39
0.15942067 0.26650271 0.1871025 3.7832298e-39
0.15930459 0.26495978 0.18016475 3.7846549e-39
0.15807045 0.26421866 0.17717773 3.8779309e-39
0.15713578 0.26327842 0.17320329 3.6942642e-39
0.15592641 0.262539 0.1702165 3.4176633e-39
0.15385264 0.26239917 0.17019254 6.460772e-39
0.15383574 0.26086295 0.16325599 9.5025426e-39
0.15384552 0.25932851 0.15631968 9.5054895e-39
0.15269139 0.25859281 0.15333372 9.5955608e-39
0.15154874 0.25785786 0.15034765 8.2148278e-39
0.14951307 0.25772059 0.15032405 6.928056e-39
0.14869088 0.25678796 0.14635092 5.728815e-39
0.14666289 0.25665119 0.14632744 4.5266088e-39
0.14340615 0.25730881 0.15025336 2.9513209e-39
0.14137053 0.25717154 0.15022975 1.3804457e-39
0.13933486 0.2570343 0.15020615 1.47337e-39
0.13729918 0.25689703 0.15018255 1.4762441e-39
0.13526356 0.25675976 0.15015894 2.3074299e-39
0.13322788 0.25662249 0.15013534 3.2265037e-39
0.13119227 0.25648522 0.15011173 2.581863e-39
0.12819505 0.25694102 0.15304989 2.0297878e-39
0.12615368 0.25680336 0.15302616 1.7557289e-39
0.12508535 0.25607345 0.15004104 1.4816671e-39
0.12304968 0.25593618 0.15001744 1.3902002e-39
0.12101406 0.25579894 0.14999384 1.2972885e-39
0.11897838 0.25566167 0.14997023 1.1132574e-39
0.11827058 0.25473672 0.14599842 1.0210519e-39
0.11624256 0.25459996 0.14597493 1.1121573e-39
0.11421454 0.25446323 0.14595145 1.2954808e-39
0.11083585 0.25511262 0.14987594 1.2962095e-39
0.10880017 0.25497535 0.14985234 1.2962151e-39
0.1067645 0.25483808 0.14982873 1.4809665e-39
0.10472888 0.25470081 0.14980513 1.6657095e-39
0.10269326 0.25456357 0.14978153 2.1266764e-39
0.10065758 0.2544263 0.14975792 2.5858259e-39
0.098621964 0.25428903 0.14973432 2.5836454e-39
0.096586347 0.25415176 0.14971071 2.5840182e-39
0.16937196 0.27072302 0.21308213 4.3364344e-39
0.16721624 0.27057764 0.21305722 4.4279084e-39
0.16614422 0.26963577 0.20908076 4.5190236e-39
0.1629048 0.27028692 0.21300727 4.4268252e-39
0.162947 0.2685506 0.20507973 4.2427954e-39
0.16080651 0.26840627 0.20505494 4.059123e-39
0.15866604 0.26826194 0.20503014 3.7832522e-39
0.15848872 0.26672822 0.19809109 3.6921286e-39
0.15636158 0.26658478 0.19806641 3.5999203e-39
0.15821418 0.26366618 0.18421382 3.7839375e-39
0.16012013 0.26075116 0.17036206 3.8779309e-39
0.15804633 0.26061133 0.17033809 3.7868199e-39
0.1559726 0.26047149 0.17031401 3.6052817e-39
0.15389884 0.26033166 0.17029005 6.553325e-39
0.15182507 0.26019183 0.17026597 9.4085575e-39
0.15270832 0.25807741 0.16036636 9.8749895e-39
0.15273687 0.25655761 0.15342969 1.0238778e-38
0.15159404 0.25582835 0.15044338 8.3056025e-39
0.14955842 0.25569108 0.15041977 6.3748949e-39
0.14873606 0.25476605 0.14644629 5.1752839e-39
0.14548713 0.25541657 0.15037256 3.9691317e-39
0.14345145 0.2552793 0.15034908 2.482808e-39
0.14141583 0.25514203 0.15032548 1.013817e-39
0.13938016 0.25500479 0.15030187 1.4737302e-39
0.13734454 0.25486752 0.15027827 1.9379341e-39
0.13530892 0.25473025 0.15025467 2.9556622e-39
0.13327324 0.25459298 0.15023106 3.8711473e-39
0.13123763 0.25445572 0.15020746 3.1321585e-39
0.12824053 0.25490582 0.15314585 2.3971144e-39
0.12716627 0.25418121 0.15016025 1.9379369e-39
0.12513065 0.25404394 0.15013677 1.4805727e-39
0.12309504 0.25390667 0.15011317 1.3901918e-39
0.12105936 0.25376943 0.15008956 1.2058061e-39
0.11902374 0.25363216 0.15006596 1.0217792e-39
0.11698806 0.25349489 0.15004236 7.4590697e-40
0.11495245 0.25335762 0.15001875 9.2921222e-40
0.11291677 0.25322038 0.14999515 1.0203387e-39
0.11088115 0.25308311 0.14997154 1.2047369e-39
0.10884553 0.25294584 0.14994794 1.296934e-39
0.10680985 0.25280857 0.14992446 1.4806078e-39
0.10477424 0.2526713 0.14990085 1.5745942e-39
0.10273856 0.25253406 0.14987725 2.4032647e-39
0.10070294 0.25239679 0.14985365 3.1375633e-39
0.098667264 0.25225952 0.14983004 2.9513546e-39
0.096631646 0.25212225 0.14980644 2.7684109e-39
0.16942 0.26857376 0.21318358 4.3353596e-39
0.16726428 0.26842842 0.21315855 4.3353596e-39
0.16619205 0.26749417 0.20918185 4.4264734e-39
0.16295284 0.26813769 0.2131086 4.2427968e-39
0.16299468 0.26641658 0.20518035 4.0584098e-39
0.15559879 0.27001223 0.22392529 3.8743801e-39
0.15342215 0.26986545 0.22390002 3.6899874e-39
0.14900213 0.27129135 0.23177749 3.5988652e-39
0.1468102 0.27114353 0.2317521 3.5073716e-39
0.14461821 0.27099574 0.23172671 3.7842948e-39
0.16016632 0.25868365 0.17045957 4.0623208e-39
0.16010883 0.25717133 0.16352135 3.8779394e-39
0.15804839 0.25703239 0.16349751 3.7853668e-39
0.15598798 0.25689346 0.16347367 6.5529663e-39
0.15392756 0.25675452 0.1634497 9.4078428e-39
0.1527541 0.25602892 0.16046292 9.6891717e-39
0.15278235 0.25452238 0.15352565 1.005691e-38
0.1516394 0.25379884 0.1505391 8.0319037e-39
0.14960378 0.25366157 0.1505155 5.9175153e-39
0.14756811 0.25352433 0.15049189 4.7128708e-39
0.14553249 0.25338706 0.15046829 3.4163166e-39
0.14349681 0.25324979 0.15044469 2.0272094e-39
0.14146119 0.25311252 0.1504212 6.4647083e-40
0.13942552 0.25297529 0.1503976 1.6591948e-39
0.1373899 0.25283802 0.150374 2.764455e-39
0.13535428 0.25270075 0.15035039 3.6910664e-39
0.1333186 0.25256348 0.15032679 4.6083438e-39
0.13128299 0.25242621 0.15030318 3.7778754e-39
0.128286 0.25287062 0.15324181 2.9481134e-39
0.12721163 0.2521517 0.15025598 2.3052495e-39
0.12517601 0.25201443 0.15023237 1.6631479e-39
0.12314039 0.25187716 0.15020889 1.4805825e-39
0.12110472 0.25173992 0.15018529 1.297636e-39
0.1190691 0.25160265 0.15016168 1.2050887e-39
0.11703342 0.25146538 0.15013808 1.2050873e-39
0.1149978 0.25132811 0.15011448 1.1121728e-39
0.11296213 0.25119087 0.15009087 1.1114637e-39
0.11092651 0.2510536 0.15006727 1.2040237e-39
0.10889089 0.25091633 0.15004367 1.2972955e-39
0.10685521 0.25077906 0.15002006 1.4813252e-39
0.1048196 0.25064179 0.14999658 1.6664325e-39
0.10278392 0.25050455 0.14997298 2.5873e-39
0.1007483 0.25036728 0.14994937 3.5077822e-39
0.098712623 0.25023001 0.14992577 3.1364675e-39
0.096677005 0.25009274 0.14990216 2.7673403e-39
0.15263656 0.27340597 0.25075442 4.0587629e-39
0.15040842 0.27325574 0.25072855 3.8743759e-39
0.15260518 0.26998645 0.23489529 3.781467e-39
0.15040752 0.26983827 0.23486978 3.5981561e-39
0.14820987 0.26969007 0.23484427 3.506322e-39
0.14601222 0.26954189 0.23481888 3.4155389e-39
0.13926762 0.27250454 0.25059944 3.7835745e-39
0.13703951 0.27235427 0.25057358 4.1530773e-39
0.16015473 0.25511712 0.16361827 4.0608915e-39
0.15809429 0.25497818 0.16359431 3.8818644e-39
0.15603387 0.25483924 0.16357046 6.6483891e-39
0.15397346 0.2547003 0.16354662 9.3174381e-39
0.15279987 0.25398043 0.16055948 9.6005578e-39
0.15193525 0.25306776 0.15658468 9.8728708e-39
0.15078649 0.25234953 0.15359801 7.6641918e-39
0.14964914 0.25163209 0.15061122 5.4539966e-39
0.14761347 0.25149482 0.15058762 4.158569e-39
0.14557785 0.25135756 0.15056401 2.859173e-39
0.14354217 0.25122032 0.15054041 1.5626482e-39
0.14150655 0.25108305 0.15051681 2.8020784e-40
0.13947088 0.25094578 0.1504932 1.9350699e-39
0.13743526 0.25080851 0.15046972 3.5045227e-39
0.13539964 0.25067127 0.15044612 4.4361494e-39
0.13336396 0.250534 0.15042251 5.3476913e-39
0.13132834 0.25039673 0.15039891 4.4228819e-39
0.12833148 0.25083542 0.15333778 3.4094531e-39
0.12725699 0.25012219 0.1503517 2.6722481e-39
0.12522137 0.24998493 0.1503281 1.846107e-39
0.12318575 0.24984767 0.1503045 1.5709789e-39
0.12115008 0.24971041 0.15028101 1.2961941e-39
0.11911446 0.24957314 0.15025741 1.4787945e-39
0.11707878 0.24943589 0.15023381 1.5702684e-39
0.11504316 0.24929862 0.1502102 1.3858786e-39
0.11300749 0.24916135 0.1501866 1.111098e-39
0.11097187 0.24902409 0.15016299 1.2025845e-39
0.10791785 0.24945892 0.15310127 1.2965752e-39
0.10587651 0.24932127 0.15307754 1.4813266e-39
0.10383514 0.24918362 0.15305394 1.6667885e-39
0.10282928 0.24847504 0.1500687 2.7713227e-39
0.10079366 0.24833778 0.1500451 3.8729661e-39
0.098757982 0.24820052 0.15002149 3.3194168e-39
0.096722364 0.24806325 0.14999789 2.6769369e-39
0.15268621 0.27118453 0.25085908 4.1505928e-39
0.15045807 0.2710343 0.25083333 4.0584028e-39
0.1482299 0.27088404 0.25080746 3.9662114e-39
0.14711541 0.26996216 0.24682969 3.8740241e-39
0.14489487 0.26981243 0.24680394 3.7825544e-39
0.14041653 0.27120394 0.25468212 3.6906894e-39
0.13931727 0.27028307 0.25070423 3.9676014e-39
0.13708916 0.27013284 0.25067836 4.2456289e-39
0.16020063 0.2530629 0.16371506 4.062325e-39
0.15814018 0.25292397 0.16369122 3.8789945e-39
0.15607977 0.25278506 0.16366738 6.6455192e-39
0.15401936 0.25264612 0.16364342 9.4089106e-39
0.15284565 0.25193191 0.16065615 9.6902325e-39
0.15198085 0.25102687 0.15668088 9.965774e-39
0.15083197 0.25031433 0.15369397 7.3875979e-39
0.1487906 0.2501767 0.15367037 4.9022311e-39
0.14765877 0.24946532 0.15068334 3.5996036e-39
0.14562315 0.24932805 0.15065974 2.2995196e-39
0.14358753 0.24919079 0.15063614 1.5651551e-39
0.14155191 0.24905352 0.15061253 8.3301869e-40
0.13951623 0.24891625 0.15058893 2.4878863e-39
0.13748056 0.248779 0.15056533 4.2395682e-39
0.13544494 0.24864174 0.15054184 5.168318e-39
0.13340926 0.24850447 0.15051824 6.1785155e-39
0.1304183 0.24893785 0.15345746 5.0693219e-39
0.12837696 0.2488002 0.15343374 3.9611933e-39
0.12730235 0.24809268 0.15044743 3.0410391e-39
0.12526673 0.24795543 0.15042382 2.2130945e-39
0.12323105 0.24781816 0.15040022 1.6624501e-39
0.12119544 0.2476809 0.15037662 1.204353e-39
0.11915976 0.24754363 0.15035301 1.2947577e-39
0.11712414 0.24740638 0.15032953 1.3851555e-39
0.11508852 0.24726911 0.15030593 1.0167345e-39
0.11305285 0.24713184 0.15028232 6.5191487e-40
0.11000469 0.24756137 0.15322083 8.3487821e-40
0.10796332 0.24742372 0.15319723 1.1129028e-39
0.10592198 0.24728607 0.15317351 1.2972983e-39
0.10388061 0.24714842 0.1531499 1.5749502e-39
0.10287464 0.24644554 0.15016431 2.4950918e-39
0.10083896 0.24630827 0.15014082 3.3223063e-39
0.098803341 0.24617101 0.15011722 2.9527881e-39
0.096767724 0.24603374 0.15009362 2.5850986e-39
0.094732046 0.24589649 0.15007001 3.505257e-39
0.15273583 0.2689631 0.25096387 4.1509529e-39
0.14940944 0.26957795 0.25489086 4.1505956e-39
0.14717367 0.26942718 0.25486499 4.1505984e-39
0.14493787 0.26927644 0.254839 4.0584084e-39
0.14382321 0.26836213 0.25086063 3.9665771e-39
0.1393376 0.26973793 0.25873941 3.8750765e-39
0.13823053 0.26882416 0.25476128 4.0590824e-39
0.13599476 0.26867339 0.25473541 4.2456303e-39
0.13375896 0.26852265 0.25470954 4.0630439e-39
0.15818608 0.25086975 0.16378814 3.7907464e-39
0.15612566 0.25073084 0.16376418 6.6455192e-39
0.15406525 0.2505919 0.16374034 9.4096225e-39
0.15289143 0.2498834 0.16075271 9.7856441e-39
0.15202644 0.24898595 0.1567772 1.0055806e-38
0.14997935 0.24884792 0.15675348 7.2021276e-39
0.14883605 0.24814148 0.15376633 4.2511149e-39
0.14770412 0.24743581 0.15077907 3.0378035e-39
0.14566851 0.24729854 0.15075547 1.7495744e-39
0.14363289 0.24716128 0.15073186 1.565525e-39
0.14159727 0.24702401 0.15070826 1.2904053e-39
0.13956159 0.24688675 0.15068465 3.1275034e-39
0.13752592 0.24674949 0.15066105 4.8863642e-39
0.1354903 0.24661224 0.15063745 6.0023765e-39
0.13345462 0.24647497 0.15061396 7.0071916e-39
0.13046375 0.24690264 0.15355343 5.7139654e-39
0.12842241 0.246765 0.1535297 4.4228833e-39
0.12734771 0.24606317 0.15054315 3.5016543e-39
0.12531209 0.24592592 0.15051955 2.4896716e-39
0.12327641 0.24578865 0.15049595 1.8450322e-39
0.12124079 0.24565139 0.15047234 1.1096364e-39
0.11920512 0.24551412 0.15044874 1.1100021e-39
0.1171695 0.24537687 0.15042514 1.1157405e-39
0.11513388 0.2452396 0.15040165 6.4436468e-40
0.1130982 0.24510233 0.15037805 9.6585898e-41
0.11005014 0.24552616 0.1533168 4.6429222e-40
0.10800877 0.24538852 0.15329319 8.3380061e-40
0.10596743 0.24525087 0.15326947 1.2040265e-39
0.10392606 0.24511322 0.15324587 1.4827545e-39
0.10188469 0.24497557 0.15322226 2.1281085e-39
0.10088432 0.24427876 0.15023643 2.7702171e-39
0.097801983 0.24470028 0.15317494 2.6758481e-39
0.096813083 0.24400423 0.15018934 2.492547e-39
0.094777405 0.24386698 0.15016574 3.3212301e-39
0.15278548 0.26674166 0.25106865 4.3342666e-39
0.14945924 0.26734892 0.254996 4.5179376e-39
0.14722347 0.26719815 0.25497013 4.2420724e-39
0.14498767 0.26704741 0.25494415 3.9662085e-39
0.1427519 0.26689664 0.25491828 3.8747332e-39
0.13825896 0.26825669 0.26279777 3.8754338e-39
0.13714415 0.26735002 0.25881892 4.0605215e-39
0.13490075 0.26719874 0.25879294 4.1552325e-39
0.13265735 0.26704749 0.25876695 4.0641201e-39
0.15910131 0.24825053 0.1609208 3.9726237e-39
0.15704662 0.24811199 0.16089696 6.7377135e-39
0.15411115 0.24853767 0.16383725 9.4106931e-39
0.1529372 0.24783489 0.16084927 9.8745972e-39
0.15207204 0.24694504 0.1568734 1.0330587e-38
0.15002495 0.24680701 0.15684968 6.9233869e-39
0.14888152 0.24610627 0.1538623 3.5149806e-39
0.14684016 0.24596861 0.15383857 2.5811105e-39
0.14571387 0.24526903 0.15085119 1.6559382e-39
0.14367825 0.24513178 0.15082759 1.2889536e-39
0.14164263 0.24499451 0.15080398 1.0134681e-39
0.13960695 0.24485724 0.15078038 3.5938513e-39
0.13757128 0.24471998 0.15075678 6.1752911e-39
0.13553566 0.24458273 0.15073317 6.9175085e-39
0.13349998 0.24444546 0.15070957 7.6536302e-39
0.13050923 0.24486743 0.15364939 5.8990728e-39
0.12846789 0.24472979 0.15362567 4.1477384e-39
0.12739307 0.24403366 0.15063888 3.4108978e-39
0.12535745 0.24389641 0.15061527 2.7658913e-39
0.12332177 0.24375914 0.15059167 1.6595536e-39
0.12128615 0.24362189 0.15056807 6.4650166e-40
0.11925048 0.24348462 0.15054446 4.4314957e-39
0.11721486 0.24334736 0.15052086 8.2103843e-39
0.11517924 0.24321009 0.15049726 7.5546214e-39
0.11314356 0.24307282 0.15047377 6.8902504e-39
0.11009562 0.24349095 0.15341276 4.32352e-39
0.10805425 0.24335331 0.15338916 1.7482011e-39
0.10601291 0.24321565 0.15336555 2.0276733e-39
0.10397154 0.24307801 0.15334183 2.3099915e-39
0.10193017 0.24294035 0.15331823 2.4947331e-39
0.10092968 0.24224925 0.15033215 2.770936e-39
0.09889406 0.242112 0.15030855 2.216672e-39
0.096858442 0.24197473 0.15028495 1.7557121e-39
0.096233428 0.24110106 0.14631194 2.9520959e-39
0.094205439 0.24096432 0.14628845 4.1481069e-39
0.16801825 0.27131134 0.27911216 3.9662043e-39
0.16675842 0.27040249 0.27513164 3.8747304e-39
0.16448453 0.27024916 0.2751053 3.9669274e-39
0.16324753 0.26934186 0.27112466 4.0584028e-39
0.1609813 0.26918903 0.27109843 4.150597e-39
0.15871501 0.26903623 0.27107209 4.150597e-39
0.15644872 0.26888341 0.27104586 4.150597e-39
0.15524989 0.2679787 0.26706594 4.0584028e-39
0.15299121 0.26782638 0.26703984 4.0587615e-39
0.15073258 0.26767409 0.26701361 4.0584014e-39
0.14847392 0.26752177 0.2669875 4.425742e-39
0.14731324 0.26661962 0.26300794 4.7923665e-39
0.14506218 0.26646781 0.26298183 4.3328303e-39
0.14281118 0.26631603 0.26295573 3.78146e-39
0.13943934 0.26691258 0.26688272 3.873657e-39
0.13830912 0.26601246 0.26290351 3.8747178e-39
0.13605809 0.26586068 0.26287752 3.9683315e-39
0.13380706 0.26570889 0.26285142 4.0630383e-39
0.13155603 0.26555711 0.26282531 4.1566702e-39
0.15914708 0.24620201 0.16101736 4.1584457e-39
0.15709239 0.24606347 0.16099352 6.8302664e-39
0.15415707 0.24648347 0.16393405 9.4106861e-39
0.15298298 0.24578637 0.16094595 9.9710836e-39
0.15211764 0.24490413 0.15696973 1.0513526e-38
0.15007055 0.2447661 0.156946 6.6449966e-39
0.148927 0.24407107 0.15395826 2.6834291e-39
0.14688563 0.24393341 0.15393454 2.1154702e-39
0.14575922 0.24323952 0.15094692 1.5640943e-39
0.14372355 0.24310227 0.15092331 1.103835e-39
0.14168793 0.242965 0.15089971 6.4897775e-40
0.13965225 0.24282773 0.1508761 4.0594636e-39
0.13761663 0.24269047 0.1508525 7.3734518e-39
0.13558102 0.24255322 0.1508289 7.8391046e-39
0.13354534 0.24241595 0.15080529 8.2939801e-39
0.13150972 0.24227868 0.15078169 6.080604e-39
0.12947404 0.24214143 0.15075809 3.7818369e-39
0.12743837 0.24200416 0.1507346 3.4123327e-39
0.12540275 0.2418669 0.150711 2.9488364e-39
0.12336713 0.24172963 0.1506874 1.563758e-39
0.12133145 0.24159238 0.15066379 1.0484095e-40
0.11929584 0.24145511 0.15064019 7.6669691e-39
0.11726016 0.24131785 0.15061659 1.5203231e-38
0.11522454 0.24118058 0.15059298 1.447358e-38
0.11218247 0.24159339 0.15353245 1.3716979e-38
0.1101411 0.24145575 0.15350884 8.1910295e-39
0.10809973 0.24131811 0.15348512 2.6780131e-39
0.10605839 0.24118045 0.15346152 2.9402311e-39
0.10401702 0.24104281 0.15343779 3.1314551e-39
0.10197565 0.24090515 0.15341419 2.9539035e-39
0.10097504 0.24021974 0.15042788 2.6776459e-39
0.098939359 0.24008249 0.15040427 1.8482244e-39
0.096903741 0.23994522 0.15038067 1.0213672e-39
0.094868064 0.23980796 0.15035707 2.5836693e-39
0.094250619 0.23894241 0.14638382 4.0584168e-39
0.17643344 0.27409032 0.30113214 4.1456e-39
0.17411 0.27393365 0.30110532 4.6040516e-39
0.17301577 0.27283952 0.29613441 4.4221658e-39
0.17070183 0.2726835 0.29610759 4.2392081e-39
0.17138386 0.2702806 0.28421599 4.0566077e-39
0.1690928 0.27012613 0.2841894 3.9654869e-39
0.16680175 0.26997164 0.28416294 3.8736472e-39
0.16578758 0.26888287 0.27919298 3.7818159e-39
0.16453519 0.26798213 0.27521211 3.7821774e-39
0.16226131 0.26782879 0.27518576 3.7818201e-39
0.15998739 0.26767546 0.27515942 3.9658498e-39
0.1577135 0.26752213 0.27513307 4.0576853e-39
0.15543959 0.26736882 0.27510673 3.9662085e-39
0.1531657 0.26721549 0.27508038 3.8740143e-39
0.15089178 0.26706216 0.27505404 3.9658498e-39
0.14861789 0.26690882 0.27502769 4.0573252e-39
0.14525387 0.26749828 0.27895504 4.2406346e-39
0.14516783 0.2658599 0.27102107 4.4232294e-39
0.14290157 0.26570711 0.27099484 4.0562448e-39
0.14063528 0.26555428 0.27096862 3.6881881e-39
0.1372484 0.26614219 0.27489597 3.6892671e-39
0.13497448 0.26598886 0.27486962 3.6896133e-39
0.13497233 0.26435614 0.2669366 3.8764988e-39
0.13271368 0.26420385 0.26691049 4.1552339e-39
0.16124758 0.24429205 0.16113776 4.063397e-39
0.15919286 0.24415351 0.16111392 3.9704685e-39
0.15713817 0.24401496 0.1610902 6.8288315e-39
0.15508345 0.24387641 0.16106635 9.6861856e-39
0.15302876 0.24373786 0.16104251 1.03359e-38
0.15216327 0.24286322 0.15706593 1.106596e-38
0.15011618 0.24272519 0.15704221 6.4598752e-39
0.14897248 0.24203587 0.15405422 1.8565411e-39
0.14693111 0.24189821 0.15403062 1.5687564e-39
0.14580458 0.24121003 0.15104252 1.2892955e-39
0.14376891 0.24107277 0.15101904 8.2867466e-40
0.14173329 0.2409355 0.15099543 4.5990896e-40
0.13969761 0.24079825 0.15097183 4.4267817e-39
0.13766199 0.24066098 0.15094823 8.2968234e-39
0.13562638 0.24052371 0.15092462 8.4826818e-39
0.1335907 0.24038646 0.15090102 8.6642046e-39
0.13060018 0.24079703 0.15384132 6.2671574e-39
0.1295194 0.24011193 0.15085381 3.7818425e-39
0.12748373 0.23997466 0.15083021 3.4123313e-39
0.12544811 0.23983741 0.15080673 3.0435348e-39
0.12341249 0.23970014 0.15078312 1.5651775e-39
0.12137681 0.23956288 0.15075952 9.2311938e-41
0.11934119 0.23942561 0.15073591 7.0148595e-39
0.11730552 0.23928836 0.15071231 1.4023436e-38
0.1152699 0.23915109 0.15068871 1.3557104e-38
0.11323422 0.23901384 0.1506651 1.319041e-38
0.11018658 0.23942055 0.15360481 1.1153816e-38
0.10814521 0.23928291 0.15358108 9.220195e-39
0.10610387 0.23914525 0.15355748 6.3570984e-39
0.1040625 0.23900761 0.15353376 3.4037007e-39
0.10202113 0.23886995 0.15351015 3.4109216e-39
0.1010204 0.23819025 0.1505236 3.4130292e-39
0.098984718 0.23805299 0.1505 2.4914008e-39
0.0969491 0.23791572 0.1504764 1.5705669e-39
0.094913423 0.23777847 0.15045279 2.766613e-39
0.17648518 0.27177387 0.30124146 2.859889e-39
0.17416173 0.2716172 0.30121452 2.2170377e-39
0.17306733 0.27053255 0.29624325 3.044632e-39
0.1727351 0.26889279 0.2883057 3.7796663e-39
0.17043638 0.26873782 0.28827912 3.7800166e-39
0.16914383 0.26784196 0.28429717 3.7807327e-39
0.16685277 0.26768747 0.28427058 3.780374e-39
0.16583839 0.26660824 0.27930027 3.6892573e-39
0.16458586 0.26571509 0.27531904 3.5974246e-39
0.16231197 0.26556179 0.27529269 3.5059507e-39
0.16003805 0.26540846 0.27526635 3.7811012e-39
0.15776417 0.26525512 0.27524 3.9651281e-39
0.15549025 0.26510179 0.27521366 3.8736486e-39
0.15321636 0.26494846 0.27518731 3.6896217e-39
0.14986771 0.26553133 0.27911526 3.8729381e-39
0.1475862 0.26537749 0.2790888 4.0566049e-39
0.14394224 0.26614264 0.28400511 4.0558832e-39
0.14302316 0.26506981 0.27903587 4.0562364e-39
0.14074165 0.26491597 0.27900952 3.8718437e-39
0.13846013 0.26476213 0.27898306 3.5967016e-39
0.13617861 0.26460829 0.27895659 3.5048731e-39
0.13248697 0.26537022 0.28387243 3.4144613e-39
0.13019595 0.26521572 0.28384584 3.8757814e-39
0.12790486 0.26506123 0.28381926 4.2463533e-39
0.12561381 0.26490676 0.28379267 4.0634012e-39
0.15923861 0.24210499 0.1612106 3.7900275e-39
0.15718392 0.24196646 0.16118675 6.8284728e-39
0.15512919 0.24182791 0.16116291 9.8723635e-39
0.1530745 0.24168935 0.16113919 1.0712201e-38
0.15220886 0.24082232 0.15716213 1.1522968e-38
0.15016177 0.24068429 0.15713841 6.271877e-39
0.14901796 0.24000064 0.15415019 9.3135761e-40
0.14697659 0.23986298 0.15412658 9.219605e-40
0.14584994 0.23918052 0.15113825 9.2267236e-40
0.14381427 0.23904327 0.15111464 6.4572674e-40
0.14177865 0.238906 0.15109116 2.8306789e-40
0.13974297 0.23876874 0.15106755 4.7995299e-39
0.13770735 0.23863147 0.15104395 9.216979e-39
0.1347284 0.2390371 0.15398461 9.1298266e-39
0.13268703 0.23889944 0.153961 9.0315424e-39
0.13064566 0.2387618 0.15393728 6.4504725e-39
0.12956476 0.23808242 0.15094954 3.7832788e-39
0.12752908 0.23794515 0.15092593 3.4116153e-39
0.12549347 0.2378079 0.15090233 3.0381566e-39
0.12345785 0.23767063 0.15087885 1.5615972e-39
0.12142217 0.23753338 0.15085524 9.9846719e-41
0.11938655 0.23739611 0.15083164 6.4595389e-39
0.11735088 0.23725885 0.15080804 1.2723734e-38
0.11531526 0.23712158 0.15078443 1.2632268e-38
0.11327958 0.23698433 0.15076083 1.254256e-38
0.11023206 0.23738532 0.15370077 1.4197007e-38
0.10819069 0.23724768 0.15367705 1.5751343e-38
0.10614935 0.23711002 0.15365344 9.773017e-39
0.10410798 0.23697238 0.15362972 3.6885609e-39
0.10206661 0.23683472 0.15360612 3.8725962e-39
0.10002524 0.23669708 0.15358251 4.056242e-39
0.097983897 0.23655944 0.15355879 3.1331983e-39
0.09699446 0.23588622 0.15057212 2.1223114e-39
0.094958782 0.23574896 0.15054852 2.9484945e-39
0.17653695 0.26945743 0.30135065 3.1357388e-39
0.1742135 0.26930076 0.30132371 2.6758481e-39
0.17189005 0.26914409 0.30129677 3.136106e-39
0.17179564 0.26733533 0.29236943 3.6874665e-39
0.17048758 0.26644608 0.28838712 3.6878126e-39
0.16919488 0.26555783 0.28440493 3.6881741e-39
0.16690382 0.26540333 0.28437835 3.6885343e-39
0.16588923 0.26433358 0.27940756 3.7803711e-39
0.16463649 0.26344806 0.27542597 3.5970603e-39
0.16236261 0.26329473 0.27539963 3.414111e-39
0.16008869 0.26314139 0.27537328 3.5977862e-39
0.1578148 0.26298806 0.27534693 3.7810928e-39
0.14991856 0.2632567 0.27922255 3.7807425e-39
0.14763704 0.26310286 0.27919608 3.8722137e-39
0.14399329 0.2638585 0.28411287 3.8729241e-39
0.14307401 0.26279515 0.27914315 3.8732744e-39
0.14079249 0.26264131 0.27911669 3.6892349e-39
0.13851097 0.26248747 0.27909034 3.5059324e-39
0.13370878 0.26396608 0.28796095 3.230077e-39
0.13141009 0.26381108 0.28793436 3.046399e-39
0.12911141 0.26365608 0.28790766 3.6006336e-39
0.12681273 0.26350108 0.28788108 4.1555954e-39
0.12566486 0.26262262 0.28390044 3.9715685e-39
0.15928438 0.2400565 0.16130716 3.7868017e-39
0.15722969 0.23991796 0.16128331 6.829549e-39
0.15517497 0.23977941 0.16125959 9.782316e-39
0.15312028 0.23964086 0.16123575 1.0429151e-38
0.15225446 0.23878141 0.15725845 1.1061982e-38
0.15020737 0.23864338 0.15723473 5.8984128e-39
0.14906344 0.23796543 0.15424615 6.4471781e-40
0.14702207 0.23782778 0.15422255 1.0148694e-39
0.14589524 0.23715101 0.15123397 1.2925269e-39
0.14385962 0.23701376 0.15121037 1.0137904e-39
0.14182401 0.23687649 0.15118676 6.4468558e-40
0.13978833 0.23673923 0.15116316 5.4441959e-39
0.13775265 0.23660196 0.15113968 1.0141082e-38
0.13477388 0.2370019 0.15408057 9.6797536e-39
0.13273251 0.23686424 0.15405697 9.2187979e-39
0.13069114 0.2367266 0.15403324 6.636656e-39
0.12961012 0.23605292 0.15104526 4.1516984e-39
0.12757444 0.23591565 0.15102166 3.9608346e-39
0.12553883 0.23577839 0.15099806 3.7688987e-39
0.12350315 0.23564112 0.15097445 4.6969254e-39
0.12146753 0.23550387 0.15095097 5.69428e-39
0.11943185 0.2353666 0.15092736 8.7554221e-39
0.11739624 0.23522934 0.15090376 1.1718553e-38
0.11536062 0.23509207 0.15088016 1.1619184e-38
0.11332494 0.23495482 0.15085655 1.1528084e-38
0.11027753 0.23535012 0.15379673 1.3003569e-38
0.10823616 0.23521248 0.15377301 1.4570822e-38
0.10619482 0.23507482 0.15374941 1.0047515e-38
0.10415345 0.23493718 0.1537258 5.5105908e-39
0.10211208 0.23479952 0.15370208 4.6022439e-39
0.10007071 0.23466188 0.15367848 3.6935691e-39
0.096983284 0.23505449 0.15661794 2.9531398e-39
0.095987976 0.23438658 0.15363115 2.305639e-39
0.093946606 0.23424894 0.15360743 3.0406916e-39
0.17194182 0.26682764 0.30140609 3.3201315e-39
0.16961837 0.26667097 0.30137914 3.5037955e-39
0.16729489 0.2665143 0.3013522 3.5949079e-39
0.16924593 0.26327369 0.28451258 3.5963414e-39
0.16695487 0.26311919 0.284486 3.6881769e-39
0.16594005 0.26205894 0.27951485 3.7803697e-39
0.16468716 0.261181 0.2755329 3.5048619e-39
0.16241327 0.26102769 0.27550656 3.2300784e-39
0.13263986 0.26239225 0.29202348 3.0464117e-39
0.13033357 0.26223674 0.29199678 2.5886565e-39
0.12802729 0.26208124 0.29197007 3.3251215e-39
0.12686396 0.26120934 0.28798908 4.0630369e-39
0.15933016 0.23800801 0.16140383 3.7900317e-39
0.15727547 0.23786946 0.16137999 6.7362897e-39
0.15522075 0.23773091 0.16135615 9.68941e-39
0.15316606 0.23759235 0.16133231 1.0160103e-38
0.15230006 0.2367405 0.15735465 1.0598833e-38
0.15025297 0.23660247 0.15733093 5.5231296e-39
0.14910892 0.23593023 0.15434211 3.7385522e-40
0.14706755 0.23579258 0.15431851 1.0166757e-39
0.14502618 0.23565494 0.15429491 1.6591598e-39
0.14298484 0.23551729 0.15427119 1.3807778e-39
0.14094344 0.23537964 0.15424758 1.0235224e-39
0.13890207 0.23524199 0.15422386 6.099628e-39
0.1368607 0.23510434 0.15420026 1.1059452e-38
0.13481936 0.2349667 0.15417653 1.0229696e-38
0.13182926 0.23536016 0.15711743 9.3992445e-39
0.13073662 0.2346914 0.15412921 6.9089381e-39
0.12965548 0.23402342 0.15114099 4.4257714e-39
0.1276198 0.23388615 0.15111738 4.4189359e-39
0.12558419 0.2337489 0.15109378 4.4336817e-39
0.12354851 0.23361163 0.15107018 7.9467874e-39
0.12151289 0.23347437 0.15104657 1.1331065e-38
0.11947721 0.2333371 0.15102297 1.105663e-38
0.11744159 0.23319985 0.15099949 1.0693243e-38
0.11440575 0.23359022 0.15394002 1.0598186e-38
0.11236438 0.23345256 0.1539163 1.0422438e-38
0.11032301 0.23331492 0.1538927 1.1902238e-38
0.10828164 0.23317727 0.15386909 1.3277946e-38
0.1062403 0.23303962 0.15384537 1.0335592e-38
0.10419893 0.23290198 0.15382177 7.2712537e-39
0.10215756 0.23276432 0.15379804 5.2404233e-39
0.10011619 0.23262668 0.15377444 3.2297281e-39
0.098074853 0.23248903 0.15375072 2.8634623e-39
0.097085178 0.23182721 0.15076357 2.4911051e-39
0.096459329 0.23099154 0.14678878 3.0399741e-39
0.094431341 0.23085481 0.14676529 3.59744e-39
0.16967013 0.26435453 0.30148834 3.6881853e-39
0.16734666 0.26419786 0.3014614 3.5967086e-39
0.13157129 0.26080325 0.29608697 3.3226412e-39
0.12925735 0.26064721 0.29606014 3.1403869e-39
0.12807867 0.2597819 0.29207844 3.693174e-39
0.15937594 0.23595949 0.16150039 4.1548654e-39
0.15732124 0.23582095 0.16147655 6.9228418e-39
0.15526652 0.2356824 0.16145271 9.6908519e-39
0.15321183 0.23554385 0.16142899 9.6908813e-39
0.15234569 0.23469959 0.15745085 9.6804543e-39
0.1502986 0.23456156 0.15742713 5.0664128e-39
0.14915439 0.23389503 0.1544382 4.6316137e-40
0.14711303 0.23375738 0.15441447 9.2485278e-40
0.14507166 0.23361973 0.15439087 1.3850967e-39
0.14303032 0.23348209 0.15436715 1.7506338e-39
0.14098892 0.23334444 0.15434355 2.213812e-39
0.13894755 0.23320679 0.15431982 6.8303939e-39
0.13690618 0.23306914 0.15429622 1.1430757e-38
0.13486484 0.23293149 0.1542725 1.0507359e-38
0.13187489 0.23331925 0.15721363 9.5868657e-39
0.1307821 0.2326562 0.15422529 6.9136059e-39
0.12874076 0.23251855 0.15420157 4.2442556e-39
0.12669939 0.2323809 0.15417796 3.8754549e-39
0.12562954 0.23171937 0.15118951 3.6208459e-39
0.12261665 0.23210561 0.15413064 8.0372917e-39
0.12155825 0.23144485 0.1511423 1.2545038e-38
0.11853394 0.23183031 0.15408331 1.2261911e-38
0.11649257 0.23169266 0.15405959 1.2063189e-38
0.11445123 0.23155501 0.15403599 1.0682083e-38
0.11240986 0.23141736 0.15401238 9.3135607e-39
0.11036849 0.23127972 0.15398866 1.1436581e-38
0.10832712 0.23114207 0.15396506 1.3547351e-38
0.10628578 0.23100442 0.15394133 1.0414529e-38
0.10424441 0.23086677 0.15391773 7.1711729e-39
0.10220304 0.23072912 0.15389401 5.0628451e-39
0.10120177 0.23007222 0.15090638 2.8659735e-39
0.099166155 0.22993496 0.1508829 2.4939722e-39
0.097130537 0.22979769 0.1508593 2.1226897e-39
0.09509486 0.22966044 0.15083569 2.2152469e-39
0.093059182 0.22952317 0.15081209 2.4017793e-39
0.13162285 0.25849628 0.29619581 3.6896245e-39
0.12930891 0.25834024 0.29616898 3.691044e-39
0.1585533 0.23443609 0.16456312 4.4343207e-39
0.15649289 0.23429717 0.16453916 7.0168297e-39
0.1553123 0.23363388 0.16154939 9.5961325e-39
0.15325761 0.23349532 0.16152555 9.2320345e-39
0.15239128 0.2326587 0.15754718 8.7538288e-39
0.15034419 0.23252067 0.15752345 4.5986145e-39
0.14919987 0.23185982 0.15453416 4.6494242e-40
0.1471585 0.23172218 0.15451044 8.344396e-40
0.14603132 0.23106249 0.15152115 1.1074434e-39
0.14399564 0.23092523 0.15149754 2.2062491e-39
0.14103439 0.23130922 0.15443951 3.3276943e-39
0.13899302 0.23117158 0.15441579 7.5769273e-39
0.13695166 0.23103392 0.15439218 1.1706276e-38
0.13491032 0.23089628 0.15436858 1.0781803e-38
0.13192049 0.23127836 0.15730995 9.7680284e-39
0.13082758 0.23062098 0.15432125 6.9135988e-39
0.12878624 0.23048334 0.15429753 4.0580707e-39
0.12674487 0.23034568 0.15427393 3.4015735e-39
0.12567484 0.22968987 0.15128523 2.687399e-39
0.12266213 0.23007038 0.1542266 8.2198318e-39
0.12062079 0.22993274 0.15420288 1.3642429e-38
0.11857942 0.2297951 0.15417928 1.3566378e-38
0.11653805 0.22965744 0.15415567 1.3357554e-38
0.11449671 0.2295198 0.15413195 1.0753475e-38
0.11245534 0.22938216 0.15410835 8.120781e-39
0.11041397 0.2292445 0.15408462 1.098351e-38
0.1083726 0.22910686 0.15406102 1.3823204e-38
0.10633126 0.2289692 0.1540373 1.0512429e-38
0.10428989 0.22883156 0.15401369 7.0879344e-39
0.10328275 0.22817998 0.15102571 4.7902183e-39
0.10124713 0.22804271 0.15100211 2.4954085e-39
0.099211454 0.22790545 0.15097851 2.1241218e-39
0.097175837 0.22776818 0.1509549 1.6627822e-39
0.095140159 0.22763093 0.15093142 1.3883435e-39
0.1585992 0.23238187 0.16465992 4.6144086e-39
0.15653878 0.23224294 0.16463608 7.1994245e-39
0.15447837 0.232104 0.16461223 9.7819419e-39
0.15330338 0.23144682 0.16162211 8.2142827e-39
0.15243688 0.23061778 0.15764338 6.7280473e-39
0.15038979 0.23047975 0.15761966 4.1422957e-39
0.14924535 0.22982462 0.15463012 1.6577165e-39
0.14720398 0.22968698 0.1546064 1.2910919e-39
0.14607668 0.22903299 0.15161687 9.2198432e-40
0.14312127 0.22941168 0.15455908 3.1343151e-39
0.14107987 0.22927402 0.15453547 5.3549093e-39
0.1390385 0.22913638 0.15451187 8.7679287e-39
0.13699713 0.22899872 0.15448815 1.2167976e-38
0.13401318 0.22937547 0.15742987 1.0782892e-38
0.13196608 0.22923744 0.15740615 9.4021256e-39
0.12991902 0.22909941 0.15738243 7.0986978e-39
0.12787193 0.22896138 0.15735871 4.7037876e-39
0.12679034 0.22831048 0.15436989 3.6842575e-39
0.12474898 0.22817284 0.15434617 2.6708721e-39
0.12173069 0.22854728 0.15728754 4.7978287e-39
0.12066627 0.22789754 0.15429896 6.9226849e-39
0.11763653 0.2282712 0.15724009 1.014598e-38
0.11658353 0.22762224 0.15425164 1.3373398e-38
0.11454219 0.2274846 0.15422791 1.2539247e-38
0.11250082 0.22734696 0.15420431 1.1809275e-38
0.11045945 0.2272093 0.15418059 1.0243454e-38
0.10943508 0.22656228 0.15119225 8.7704454e-39
0.1073994 0.22642501 0.15116864 6.1756793e-39
0.10433537 0.22679636 0.15410966 3.5820314e-39
0.10332811 0.22615048 0.15112144 3.2268723e-39
0.10129249 0.22601321 0.15109783 2.8645497e-39
0.099256814 0.22587596 0.15107423 2.1237645e-39
0.096169889 0.22624576 0.154015 1.4755126e-39
0.094128519 0.22610812 0.1539914 1.1092244e-39
0.15955561 0.23115206 0.1687364 4.707686e-39
0.15864509 0.23032767 0.16475683 4.7112593e-39
0.15658468 0.23018874 0.16473299 7.2930438e-39
0.15452427 0.2300498 0.16470903 9.8694614e-39
0.15334916 0.22939831 0.16171879 7.2980675e-39
0.15248248 0.22857688 0.15773958 4.6093793e-39
0.1513322 0.22792706 0.15474969 3.7678043e-39
0.14929083 0.22778942 0.15472609 2.8519633e-39
0.14724946 0.22765177 0.15470237 1.7502975e-39
0.14612204 0.22700348 0.15171248 6.4900438e-40
0.14316675 0.22737648 0.15465516 3.962631e-39
0.14112535 0.22723882 0.15463144 7.288477e-39
0.13908398 0.22710118 0.15460783 9.9714745e-39
0.13704261 0.22696352 0.15458411 1.2534245e-38
0.13500127 0.22682588 0.15456051 1.0779671e-38
0.1329599 0.22668824 0.15453678 9.033713e-39
0.12996462 0.22705851 0.15747875 7.1916151e-39
0.12791753 0.22692049 0.15745503 5.3477221e-39
0.12683582 0.22627528 0.15446585 3.9604955e-39
0.12479445 0.22613764 0.15444225 2.5786554e-39
0.12177628 0.22650638 0.15738386 1.3779767e-39
0.12071174 0.22586234 0.15439492 1.0527115e-40
0.11768213 0.22623031 0.15733641 6.7210927e-39
0.116629 0.22558704 0.1543476 1.3277254e-38
0.11458766 0.2254494 0.15432388 1.4404359e-38
0.11254629 0.22531176 0.15430027 1.5395891e-38
0.11050493 0.2251741 0.15427655 9.5944678e-39
0.10948044 0.22453277 0.15128797 3.6961447e-39
0.10744476 0.2243955 0.15126437 1.928984e-39
0.10540915 0.22425823 0.15124077 9.8729885e-41
0.10337347 0.22412097 0.15121716 1.6699778e-39
0.10133785 0.22398371 0.15119356 3.1382654e-39
0.098256767 0.22434822 0.15413469 2.2148839e-39
0.096215367 0.22421056 0.15411097 1.29112e-39
0.15960169 0.22909026 0.16883355 5.0761014e-39
0.15753362 0.22895081 0.16880959 5.3526673e-39
0.15663061 0.22813454 0.16482979 7.2912404e-39
0.15457019 0.2279956 0.16480595 9.2266017e-39
0.15339494 0.2273498 0.16181535 6.1813209e-39
0.15252811 0.22653596 0.1578359 3.2146347e-39
0.15048102 0.22639793 0.15781218 3.0345805e-39
0.14933631 0.22575422 0.15482205 2.9463365e-39
0.14729494 0.22561657 0.15479845 1.749608e-39
0.14616734 0.22497399 0.1518082 5.5216204e-40
0.14321223 0.22534128 0.15475112 4.3349967e-39
0.14117083 0.22520362 0.1547274 8.212213e-39
0.13912946 0.22506598 0.1547038 1.0331999e-38
0.13708809 0.22492832 0.15468007 1.2534248e-38
0.1341044 0.22529365 0.1576224 1.0691429e-38
0.13300538 0.22465304 0.15463275 8.7607246e-39
0.13001025 0.22501759 0.15757495 7.2838149e-39
0.12892267 0.22437774 0.15458554 5.9026909e-39
0.1268813 0.22424008 0.15456182 4.4221967e-39
0.12483993 0.22410244 0.15453821 3.0392468e-39
0.12279856 0.22396478 0.15451449 1.563744e-39
0.12075722 0.22382714 0.15449089 1.8413062e-40
0.11871585 0.2236895 0.15446717 7.1045075e-39
0.11667448 0.22355184 0.15444356 1.4109868e-38
0.11463314 0.2234142 0.15441984 1.3469563e-38
0.11259177 0.22327656 0.15439624 1.2734108e-38
0.1105504 0.2231389 0.15437263 9.6801656e-39
0.10952574 0.22250326 0.15138358 6.6126083e-39
0.10749006 0.22236601 0.15135998 3.3086464e-39
0.10442632 0.22272596 0.15430158 1.012326e-40
0.10238495 0.2225883 0.15427798 1.5767116e-39
0.10034359 0.22245066 0.15425426 3.0485851e-39
0.098302245 0.22231302 0.15423065 1.9383013e-39
0.096260846 0.22217536 0.15420705 8.2942576e-40
0.15878552 0.22753116 0.17189807 5.4438007e-39
0.15757969 0.226889 0.16890687 5.9987499e-39
0.15551165 0.22674954 0.16888291 7.2926879e-39
0.15461609 0.22594137 0.16490287 8.4851158e-39
0.15344071 0.2253013 0.16191202 5.1693536e-39
0.1525737 0.22449505 0.1579321 1.8467825e-39
0.15052661 0.22435702 0.15790838 2.3927802e-39
0.14938179 0.223719 0.15491802 2.9459526e-39
0.14824831 0.22308174 0.15192753 1.749587e-39
0.1462127 0.22294447 0.15190393 4.6640818e-40
0.14325771 0.22330606 0.15484709 4.7970342e-39
0.14121631 0.2231684 0.15482336 9.0398128e-39
0.13917494 0.22303076 0.15479976 1.0793706e-38
0.13713357 0.2228931 0.15477604 1.2534256e-38
0.13509223 0.22275546 0.15475243 1.0507041e-38
0.13305086 0.22261781 0.15472883 8.4819825e-39
0.13100949 0.22248016 0.15470511 7.4631699e-39
0.12896815 0.22234252 0.1546815 6.3586314e-39
0.12692678 0.22220486 0.15465778 4.8785001e-39
0.12488541 0.22206722 0.15463418 3.4058713e-39
0.12284404 0.22192958 0.15461046 1.837461e-39
0.1208027 0.22179192 0.15458685 2.0029039e-40
0.11777335 0.22214848 0.15752882 7.5863146e-39
0.11671996 0.22151662 0.15453953 1.4934952e-38
0.11467862 0.22137898 0.15451592 1.2538264e-38
0.11263725 0.22124133 0.1544922 1.0057601e-38
0.11059588 0.22110368 0.1544686 9.7791968e-39
0.1095711 0.22047375 0.1514793 9.4795935e-39
0.10753542 0.22033648 0.1514557 4.775834e-39
0.1054998 0.22019921 0.1514321 9.9785062e-41
0.10243043 0.22055309 0.15437394 1.4870299e-39
0.10038906 0.22041544 0.15435022 2.8627477e-39
0.098347723 0.2202778 0.15432662 1.5684187e-39
0.095255464 0.22063011 0.15726787 2.7911483e-40
0.16004917 0.22610083 0.17498726 4.9839156e-39
0.15883172 0.22546366 0.17199558 5.4441566e-39
0.15675798 0.22532383 0.1719715 5.9051264e-39
0.15555772 0.22468773 0.16898018 6.6455473e-39
0.15466198 0.22388718 0.16499966 7.476017e-39
0.15260154 0.22374824 0.16497582 5.0728714e-39
0.15143177 0.22311425 0.16198474 2.6715027e-39
0.15057221 0.22231613 0.1580047 2.9473525e-39
0.14852518 0.2221781 0.15798098 3.3175755e-39
0.1473859 0.22154614 0.15499038 2.4846087e-39
0.14625806 0.22091496 0.15199965 1.653797e-39
0.14330319 0.22127086 0.15494305 6.641625e-39
0.14126179 0.2211332 0.15491933 1.1620895e-38
0.13922042 0.22099556 0.15489572 1.2080137e-38
0.13717905 0.2208579 0.15487212 1.2627895e-38
0.13513771 0.22072026 0.1548484 1.0875818e-38
0.13309634 0.2205826 0.15482479 9.2170196e-39
0.13105497 0.22044496 0.15480107 7.6504156e-39
0.12901363 0.22030732 0.15477747 6.0874213e-39
0.12697226 0.22016966 0.15475374 4.7913225e-39
