# .PCD v0.7 - Point Cloud Data file format
VERSION 0.7
FIELDS x y z rgb
SIZE 4 4 4 4
TYPE F F F F
COUNT 1 1 1 1
WIDTH 1015
HEIGHT 1
VIEWPOINT 0 0 0 1 0 0 0
POINTS 1015
DATA ascii
0.2965461 0.2597822 0.090322733 9.2806736e-40
0.29462862 0.25965288 0.0903005 9.2878202e-40
0.29271114 0.2595236 0.090278327 9.2842049e-40
0.29079366 0.25939432 0.090256095 9.2841628e-40
0.28887621 0.25926501 0.090233862 9.2769462e-40
0.28695875 0.25913572 0.09021163 9.2841628e-40
0.28504127 0.25900644 0.090189397 9.2770162e-40
0.28312379 0.25887713 0.090167224 9.2877922e-40
0.28120634 0.25874785 0.090144992 9.2877922e-40
0.27928886 0.25861853 0.090122759 8.3765979e-40
0.27737141 0.25848925 0.090100527 8.3765839e-40
0.27545393 0.25835997 0.090078354 7.4618162e-40
0.27353644 0.25823066 0.090056121 7.4582289e-40
0.27161896 0.25810137 0.090033889 6.539888e-40
0.26970148 0.25797206 0.090011656 7.4546696e-40
0.26778406 0.25784278 0.089989424 8.3765979e-40
0.26586658 0.2577135 0.089967251 7.4618022e-40
0.2639491 0.25758418 0.089945018 6.5219794e-40
0.26203161 0.2574549 0.089922786 4.6745635e-40
0.26011413 0.25732559 0.089900553 2.8235463e-40
0.25777268 0.25761771 0.091854751 5.5607166e-40
0.25585139 0.25748816 0.091832519 8.3228861e-40
0.25393012 0.25735861 0.091810226 1.8413973e-39
0.25200883 0.25722906 0.091787994 2.7611858e-39
0.25008756 0.25709951 0.091765702 2.3924074e-39
0.24816626 0.25696996 0.091743469 1.9350278e-39
0.24624498 0.25684041 0.091721177 1.2918248e-39
0.24477439 0.25629124 0.089722812 6.4861762e-40
0.24285692 0.25616196 0.08970058 4.6315437e-40
0.24093945 0.25603268 0.089678347 1.8908421e-40
0.23902197 0.25590336 0.089656115 8.3049915e-40
0.23710451 0.25577408 0.089633942 1.38617e-39
0.23518704 0.25564477 0.089611709 5.8035939e-39
0.23326957 0.25551549 0.089589477 1.0114487e-38
0.23087472 0.255804 0.091543078 6.0665546e-39
0.22895344 0.25567445 0.091520786 1.9364754e-39
0.22703215 0.2555449 0.091498554 2.8591435e-39
0.22511087 0.25541535 0.091476262 3.6885357e-39
0.22318959 0.2552858 0.091454029 4.1505858e-39
0.2212683 0.25515625 0.091431737 4.5193725e-39
0.21984729 0.25461042 0.089433908 4.6115766e-39
0.21742573 0.25489715 0.091387212 4.6122954e-39
0.21601236 0.25435182 0.089389503 4.6126556e-39
0.21409488 0.25422254 0.08936727 4.5208201e-39
0.30809364 0.25864628 0.09054625 3.7057254e-39
0.30617616 0.25851697 0.090524018 3.7050331e-39
0.3042587 0.25838768 0.090501785 3.0532402e-39
0.30234122 0.2582584 0.090479553 2.4024786e-39
0.30042374 0.25812909 0.09045732 1.6670547e-39
0.29850629 0.25799981 0.090435147 1.0199015e-39
0.29658884 0.2578705 0.090412915 1.0195427e-39
0.29467136 0.25774121 0.090390682 1.1128103e-39
0.29275388 0.25761193 0.09036845 1.1120901e-39
0.29083639 0.25748262 0.090346217 1.0202476e-39
0.28891891 0.25735334 0.090324044 1.0202406e-39
0.28700149 0.25722402 0.090301812 1.0213238e-39
0.28508401 0.25709474 0.090279579 9.2841909e-40
0.28316653 0.25696546 0.090257347 8.3730246e-40
0.28124905 0.25683615 0.090235114 8.3766119e-40
0.27933156 0.25670686 0.090212941 8.3765839e-40
0.27741411 0.25657755 0.090190709 8.3765418e-40
0.27549663 0.25644827 0.090168476 7.4617742e-40
0.27357918 0.25631899 0.090146244 8.3765418e-40
0.2716617 0.25618967 0.090124011 9.2949388e-40
0.26974422 0.25606039 0.090101838 1.0206147e-39
0.26782677 0.25593108 0.090079606 1.2046444e-39
0.26590931 0.2558018 0.090057373 7.4295443e-40
0.26399183 0.25567251 0.090035141 3.7310693e-40
0.26207435 0.2555432 0.090012908 2.4849688e-39
0.26015687 0.25541392 0.089990735 4.5950426e-39
0.25781548 0.25570223 0.091945112 5.7914236e-39
0.25589421 0.25557268 0.09192282 6.9831313e-39
0.25397295 0.25544313 0.091900587 7.4440996e-39
0.25205165 0.25531358 0.091878295 7.9029086e-39
0.25013036 0.25518402 0.091856062 7.6288258e-39
0.24820907 0.25505447 0.09183377 7.4469597e-39
0.24628779 0.25492492 0.091811538 6.2502396e-39
0.24481711 0.25437957 0.089812934 5.0538656e-39
0.24289964 0.25425026 0.089790761 5.1474919e-39
0.24098217 0.25412098 0.089768529 5.2375352e-39
0.23906469 0.25399169 0.089746296 3.8603629e-39
0.23714723 0.25386238 0.089724064 2.5750064e-39
0.23522976 0.2537331 0.089701831 6.4417634e-39
0.23331229 0.25360379 0.089679658 1.0395729e-38
0.23139483 0.2534745 0.089657426 5.885043e-39
0.22899625 0.25375897 0.091611147 1.3818835e-39
0.22707497 0.25362942 0.091588855 2.3052691e-39
0.22515368 0.25349987 0.091566622 3.3208405e-39
0.2232324 0.25337031 0.09154433 3.8750821e-39
0.22131112 0.25324076 0.091522098 4.3364204e-39
0.21938983 0.25311121 0.091499805 4.6119339e-39
0.21746856 0.25298166 0.091477573 4.7963265e-39
0.21605507 0.25244015 0.089479625 4.7044939e-39
0.21413758 0.25231087 0.089457452 4.6130185e-39
0.30813634 0.25673458 0.090636373 4.3489424e-39
0.30621886 0.2566053 0.09061414 4.8070479e-39
0.30430141 0.25647599 0.090591908 4.1645623e-39
0.30238396 0.2563467 0.090569735 3.5145294e-39
0.30046648 0.25621742 0.090547502 2.315996e-39
0.298549 0.25608811 0.09052527 1.1174837e-39
0.29715294 0.25533035 0.087536693 1.2014397e-39
0.29471403 0.25582951 0.090480804 1.2950618e-39
0.29279658 0.25570023 0.090458632 1.202862e-39
0.2908791 0.25557095 0.090436399 1.1113754e-39
0.28896165 0.25544164 0.090414166 1.1117257e-39
0.28704417 0.25531235 0.090391934 1.0198959e-39
0.28512669 0.25518307 0.090369761 8.3587033e-40
0.28320923 0.25505376 0.090347528 6.5327413e-40
0.28129178 0.25492448 0.090325296 7.4618443e-40
0.2793743 0.25479516 0.090303063 8.3765979e-40
0.27745682 0.25466588 0.090280831 8.3765979e-40
0.27553934 0.2545366 0.090258658 7.4618162e-40
0.27362186 0.25440729 0.090236425 9.2949248e-40
0.27170441 0.254278 0.090214193 1.1124474e-39
0.26978692 0.25414869 0.09019196 1.2950436e-39
0.26786947 0.25401941 0.090169728 1.4765706e-39
0.26595199 0.25389013 0.090147555 8.3085929e-40
0.26403451 0.25376081 0.090125322 9.6169712e-41
0.26211706 0.25363153 0.09010309 4.5039092e-39
0.26019958 0.25350222 0.090080857 8.9156017e-39
0.25785828 0.25378674 0.092035413 1.103105e-38
0.25593701 0.25365719 0.09201318 1.3139318e-38
0.25401574 0.25352764 0.091990888 1.3048917e-38
0.25209445 0.25339809 0.091968656 1.2955282e-38
0.25017315 0.25326854 0.091946363 1.2956352e-38
0.24825187 0.25313899 0.091924131 1.2862371e-38
0.24633059 0.25300944 0.091901839 1.1207905e-38
0.24485981 0.25246787 0.089903116 9.464105e-39
0.24294235 0.25233859 0.089880884 9.8350329e-39
0.24102488 0.25220931 0.089858651 1.0198077e-38
0.2391074 0.25207999 0.089836419 6.981332e-39
0.23718993 0.25195071 0.089814246 3.6795421e-39
0.23527247 0.2518214 0.089792013 7.1768089e-39
0.233355 0.25169212 0.089769781 1.0571871e-38
0.23143753 0.25156283 0.089747548 5.6959994e-39
0.22952005 0.25143352 0.089725316 7.379518e-40
0.22711776 0.25171393 0.091679215 1.8421245e-39
0.22568512 0.25117493 0.08968091 2.952051e-39
0.22376764 0.25104564 0.089658678 3.600649e-39
0.22185017 0.25091636 0.089636445 4.1523893e-39
0.21943262 0.25119573 0.091590166 4.6112192e-39
0.21751136 0.25106618 0.091567874 4.9789213e-39
0.30817908 0.25482288 0.090726554 4.2542468e-39
0.3062616 0.2546936 0.090704322 5.723598e-39
0.30434412 0.25456429 0.090682089 5.2654799e-39
0.30242667 0.254435 0.090659857 4.7155473e-39
0.30050918 0.25430572 0.090637624 4.2513504e-39
0.29859173 0.25417641 0.090615451 3.6982116e-39
0.29719555 0.25342441 0.087626576 3.0485725e-39
0.29528379 0.25329548 0.087604403 2.3971046e-39
0.29337204 0.25316659 0.087582231 1.756756e-39
0.29092181 0.25365925 0.090526521 1.2028634e-39
0.28900436 0.25352994 0.090504348 9.2591076e-40
0.2870869 0.25340065 0.090482116 5.6000651e-40
0.28516942 0.25327137 0.090459883 4.6709762e-40
0.28325194 0.25314206 0.090437651 3.7741031e-40
0.28133449 0.25301278 0.090415418 4.6816541e-40
0.27941701 0.25288346 0.090393245 4.6996187e-40
0.27749956 0.25275418 0.090371013 4.6852835e-40
0.27558208 0.2526249 0.09034878 4.7067934e-40
0.27366459 0.25249559 0.090326548 6.518364e-40
0.27174711 0.2523663 0.090304315 8.3586613e-40
0.26982963 0.25223699 0.090282142 1.0166659e-39
0.26791221 0.25210771 0.09025991 1.106007e-39
0.26599473 0.25197843 0.090237677 3.4937454e-39
0.26407725 0.25184911 0.090215445 5.8800165e-39
0.26215976 0.25171983 0.090193212 8.6390106e-39
0.26024228 0.25159052 0.090171039 1.1399811e-38
0.25790107 0.25187126 0.092125773 1.2314932e-38
0.25597981 0.25174171 0.092103481 1.3321176e-38
0.25405854 0.25161216 0.092081249 1.3321535e-38
0.25213724 0.25148261 0.092058957 1.3412293e-38
0.25021595 0.25135306 0.092036724 1.3044591e-38
0.24829467 0.2512235 0.092014432 1.2675099e-38
0.24637339 0.25109395 0.091992199 1.2033688e-38
0.24490254 0.25055617 0.089993238 1.1484469e-38
0.24298507 0.25042689 0.089971066 1.0657589e-38
0.2410676 0.25029761 0.089948833 9.9225608e-39
0.23915012 0.25016829 0.0899266 6.9831215e-39
0.23723266 0.25003901 0.089904368 4.1376434e-39
0.23531519 0.2499097 0.089882135 7.5387713e-39
0.23339772 0.2497804 0.089859962 1.1029619e-38
0.23148026 0.24965112 0.08983773 6.7094269e-39
0.22956277 0.24952182 0.089815497 2.481027e-39
0.22764531 0.24939252 0.089793265 3.0384747e-39
0.22523928 0.2496689 0.091747284 3.5956057e-39
0.22381036 0.24913393 0.089748859 3.966912e-39
0.22189289 0.24900465 0.089726627 4.4278958e-39
0.21947542 0.24928024 0.091680467 4.6112206e-39
0.21755415 0.24915069 0.091658235 4.7945329e-39
0.30822179 0.25291121 0.090816677 4.159896e-39
0.30630431 0.2527819 0.090794444 6.6397991e-39
0.30438685 0.25265262 0.090772212 6.2738795e-39
0.30246937 0.25252333 0.090750039 5.9061816e-39
0.30055189 0.25239402 0.090727806 6.091649e-39
0.29863444 0.25226474 0.090705574 6.2731774e-39
0.29671699 0.25213543 0.090683341 4.8974499e-39
0.29479951 0.25200614 0.090661108 3.4194667e-39
0.29288203 0.25187686 0.090638936 2.4074784e-39
0.29096454 0.25174755 0.090616703 1.2986351e-39
0.28904706 0.25161827 0.090594471 7.3721752e-40
0.28712964 0.25148895 0.090572238 9.581098e-41
0.28521216 0.25135967 0.090550065 9.5101923e-41
0.28329468 0.25123039 0.090527833 9.6882973e-41
0.2813772 0.25110108 0.0905056 9.5435432e-41
0.27945971 0.25097179 0.090483367 9.6881572e-41
0.27754226 0.25084248 0.090461135 9.6175318e-41
0.27562478 0.2507132 0.090438962 9.7250113e-41
0.27370733 0.25058392 0.090416729 3.7096294e-40
0.27178985 0.2504546 0.090394497 5.553528e-40
0.26987237 0.25032532 0.090372264 6.461135e-40
0.26795492 0.25019601 0.090350032 7.3831473e-40
0.26603746 0.25006673 0.090327859 6.1580509e-39
0.26411998 0.24993743 0.090305626 1.1576687e-38
0.2622025 0.24980813 0.090283394 1.2680849e-38
0.26028502 0.24967884 0.090261161 1.3783966e-38
0.25836754 0.24954955 0.090238929 1.3599593e-38
0.25645009 0.24942026 0.090216756 1.3413752e-38
0.25410134 0.24969666 0.09217155 1.3595611e-38
0.25218004 0.24956711 0.092149317 1.377821e-38
0.25025874 0.24943756 0.092127025 1.3134649e-38
0.24878021 0.24890308 0.090127826 1.2399608e-38
0.2464162 0.24917845 0.0920825 1.295134e-38
0.24494526 0.24864449 0.09008342 1.3410153e-38
0.24302779 0.24851519 0.090061188 1.1480168e-38
0.24111032 0.24838589 0.090038955 9.5534322e-39
0.23919284 0.24825661 0.090016723 7.0738892e-39
0.23727538 0.24812731 0.08999455 4.595393e-39
0.23535791 0.24799801 0.089972317 7.9950874e-39
0.23344044 0.24786872 0.089950085 1.1394808e-38
0.23152298 0.24773943 0.089927852 7.8143157e-39
0.22912465 0.2480125 0.09188211 4.1412475e-39
0.22720337 0.24788295 0.091859877 4.2348711e-39
0.22528209 0.2477534 0.091837585 4.2391885e-39
0.22336081 0.24762385 0.091815352 4.4264608e-39
0.22143951 0.2474943 0.09179306 4.6112136e-39
0.21951824 0.24736474 0.091770828 4.611578e-39
0.21759695 0.24723519 0.091748536 4.6112192e-39
0.30826449 0.25099951 0.090906858 4.8859648e-39
0.30634701 0.25087023 0.090884626 7.1868661e-39
0.30442959 0.25074092 0.090862393 6.264914e-39
0.30251211 0.25061163 0.090840161 5.3490715e-39
0.30059463 0.25048235 0.090817928 7.1868591e-39
0.29867715 0.25035304 0.090795755 9.1189876e-39
0.29675969 0.25022376 0.090773523 8.5651006e-39
0.29484221 0.25009444 0.09075129 8.0169574e-39
0.29292476 0.24996516 0.090729058 7.6424408e-39
0.29100728 0.24983586 0.090706825 7.366584e-39
0.2890898 0.24970657 0.090684652 6.897369e-39
0.28717235 0.24957727 0.09066242 6.5217888e-39
0.28525487 0.24944799 0.090640187 6.3420765e-39
0.28333741 0.24931869 0.090617955 6.155516e-39
0.28141993 0.24918939 0.090595722 6.1587236e-39
0.27950245 0.24906009 0.090573549 6.1544384e-39
0.27758497 0.2489308 0.090551317 5.9743743e-39
0.27566749 0.24880151 0.090529084 5.7871174e-39
0.27375004 0.24867222 0.090506852 5.8821829e-39
0.27183259 0.24854292 0.090484619 5.970794e-39
0.2699151 0.24841362 0.090462446 6.1566202e-39
0.26799762 0.24828433 0.090440214 6.4310477e-39
0.26608017 0.24815504 0.090417981 9.6470809e-39
0.26416269 0.24802575 0.090395749 1.2954578e-38
0.26224524 0.24789645 0.090373516 1.3046038e-38
0.26032776 0.24776715 0.090351343 1.3139702e-38
0.25841027 0.24763785 0.090329111 1.2035918e-38
0.25649279 0.24750857 0.090306878 1.0934574e-38
0.25414413 0.24778117 0.09226191 1.1206816e-38
0.25222284 0.24765162 0.092239618 1.1572017e-38
0.25074041 0.24712068 0.09024024 1.148055e-38
0.24882293 0.2469914 0.090218008 1.1480191e-38
0.24690546 0.2468621 0.090195775 1.2307069e-38
0.24498798 0.2467328 0.090173542 1.3225057e-38
0.24307051 0.2466035 0.09015137 1.2307411e-38
0.24115305 0.24647422 0.090129137 1.1298314e-38
0.23923557 0.24634492 0.090106905 8.2670416e-39
0.2373181 0.24621563 0.090084672 5.3282917e-39
0.23540063 0.24608633 0.090062439 8.4524782e-39
0.23348317 0.24595703 0.090040267 1.1576328e-38
0.2315657 0.24582775 0.090018034 8.1820094e-39
0.22964822 0.24569845 0.089995801 4.8820384e-39
0.22773075 0.24556915 0.089973569 4.6051054e-39
0.22581328 0.24543986 0.089951336 4.4239539e-39
0.2238958 0.24531056 0.089929163 4.5179502e-39
0.22197834 0.24518128 0.089906931 4.6112192e-39
0.22006088 0.24505198 0.089884698 4.6112178e-39
0.21763974 0.24531971 0.091838896 4.5190236e-39
0.30830723 0.24908783 0.090996981 5.7031558e-39
0.30638975 0.24895853 0.090974748 7.7249745e-39
0.30447227 0.24882923 0.090952516 6.2502284e-39
0.30255482 0.24869995 0.090930343 4.6943961e-39
0.30063733 0.24857065 0.09090811 8.3710361e-39
0.29871988 0.24844135 0.090885878 1.1953699e-38
0.2968024 0.24831206 0.090863645 1.2227055e-38
0.29488492 0.24818276 0.090841472 1.2503995e-38
0.29296744 0.24805348 0.09081924 1.2962814e-38
0.29104996 0.24792418 0.090797007 1.3329811e-38
0.28913251 0.24779488 0.090774775 1.3147948e-38
0.28721505 0.24766558 0.090752542 1.2866339e-38
0.28529757 0.24753629 0.090730369 1.2504373e-38
0.28338009 0.247407 0.090708137 1.2132732e-38
0.28146264 0.24727771 0.090685904 1.2137761e-38
0.27954516 0.24714841 0.090663671 1.2132012e-38
0.27762771 0.24701911 0.090641439 1.1859724e-38
0.27571023 0.24688983 0.090619266 1.148808e-38
0.27379274 0.24676053 0.090597034 1.1490953e-38
0.27187526 0.24663123 0.090574801 1.1394095e-38
0.26995778 0.24650194 0.090552568 1.1762515e-38
0.26804036 0.24637264 0.090530336 1.2035164e-38
0.26612288 0.24624336 0.090508163 1.3136845e-38
0.2642054 0.24611406 0.09048593 1.4237771e-38
0.26228791 0.24598476 0.090463698 1.3317599e-38
0.26037043 0.24585547 0.090441465 1.2400334e-38
0.25845298 0.24572618 0.090419233 1.046965e-38
0.25653553 0.24559689 0.09039706 8.4506999e-39
0.25461805 0.24546759 0.090374827 8.9084397e-39
0.25226563 0.24573614 0.092329979 9.276132e-39
0.25078312 0.24520899 0.090330362 9.9186147e-39
0.24886563 0.24507971 0.09030813 1.0469638e-38
0.2465018 0.24534748 0.092263162 1.1755344e-38
0.24458052 0.24521793 0.09224093 1.3042466e-38
0.24265923 0.24508838 0.092218637 1.3042457e-38
0.24073794 0.24495883 0.092196345 1.3043545e-38
0.23881666 0.24482928 0.092174113 9.5512994e-39
0.23689538 0.24469973 0.092151821 5.97078e-39
0.23544334 0.24417464 0.090152621 8.9102221e-39
0.23352587 0.24404535 0.090130389 1.1761076e-38
0.23160841 0.24391606 0.090108156 8.6390359e-39
0.22969092 0.24378677 0.090085924 5.5209394e-39
0.22777346 0.24365747 0.090063751 5.062485e-39
0.22585599 0.24352817 0.090041518 4.6072634e-39
0.22393851 0.24339887 0.090019286 4.6097843e-39
0.22202104 0.24326959 0.089997053 4.6108619e-39
0.22010359 0.2431403 0.089974821 4.5190278e-39
0.21768257 0.24340422 0.091929197 4.4271895e-39
0.30834994 0.24717614 0.091087162 6.2498626e-39
0.30643246 0.24704684 0.09106493 5.7899817e-39
0.304515 0.24691755 0.091042697 4.8705645e-39
0.30259752 0.24678826 0.091020465 3.9493215e-39
0.30068004 0.24665897 0.090998232 7.7210144e-39
0.29876259 0.24652967 0.090976059 1.1485202e-38
0.29684514 0.24640037 0.090953827 1.1394092e-38
0.29492766 0.24627107 0.090931594 1.1299027e-38
0.29301018 0.24614179 0.090909362 1.1302253e-38
0.29109269 0.24601249 0.090887129 1.130048e-38
0.28917521 0.2458832 0.090864956 1.1120417e-38
0.28725779 0.2457539 0.090842724 1.1026408e-38
0.28534031 0.24562462 0.090820491 1.1028897e-38
0.28342283 0.24549532 0.090798259 1.1120766e-38
0.28112769 0.24576393 0.092754245 1.121407e-38
0.2792064 0.24563438 0.092732012 1.1305149e-38
0.2772851 0.24550483 0.09270972 1.1213273e-38
0.27536383 0.24537528 0.092687488 1.1121083e-38
0.27285317 0.24584103 0.095632136 1.1028175e-38
0.27152127 0.24511617 0.092642963 1.1026022e-38
0.26959997 0.24498662 0.092620671 1.1760344e-38
0.26767871 0.24485707 0.092598438 1.2585099e-38
0.26575744 0.24472752 0.092576146 1.3228336e-38
0.26383615 0.24459796 0.092553854 1.3960837e-38
0.26191485 0.24446841 0.092531621 1.2950255e-38
0.26041317 0.24394378 0.090531647 1.1938982e-38
0.25849569 0.24381448 0.090509415 1.0929502e-38
0.25657824 0.2436852 0.090487182 9.9186231e-39
0.25422972 0.2439502 0.092442572 1.0380699e-38
0.2527433 0.24342661 0.090442777 1.0929175e-38
0.25082582 0.24329731 0.090420544 1.1298284e-38
0.24846588 0.24356155 0.092375755 1.1663495e-38
0.2465446 0.243432 0.092353523 1.2584739e-38
0.24462332 0.24330245 0.092331231 1.3595277e-38
0.24202116 0.24376205 0.095274866 1.3504864e-38
0.24078074 0.24304335 0.092286706 1.3506309e-38
0.23885946 0.2429138 0.092264414 1.0842372e-38
0.23693818 0.24278425 0.092242181 8.1741117e-39
0.2350169 0.2426547 0.092219889 9.8339581e-39
0.23356859 0.24213366 0.090220571 1.1398399e-38
0.23165113 0.24200438 0.090198338 1.0666591e-38
0.22973365 0.24187508 0.090176105 9.8372049e-39
0.22781618 0.24174578 0.090153873 8.1899085e-39
0.22589871 0.24161649 0.09013164 6.5372409e-39
0.22398123 0.24148719 0.090109468 5.5299315e-39
0.22280754 0.24077299 0.087122083 4.6119395e-39
0.2208958 0.2406441 0.08709991 4.5197495e-39
0.30839264 0.24526446 0.091177285 6.8894937e-39
0.30647516 0.24513516 0.091155052 3.8592769e-39
0.30455774 0.24500586 0.09113282 3.4922894e-39
0.30264026 0.24487658 0.091110647 3.1256663e-39
0.30072278 0.24474728 0.091088414 7.0781813e-39
0.2988053 0.24461798 0.091066182 1.0934555e-38
0.29688784 0.24448869 0.091043949 1.0564344e-38
0.29497036 0.24435939 0.091021717 1.0105888e-38
0.29305291 0.24423011 0.090999544 9.6470739e-39
0.29113543 0.24410081 0.090977311 9.188981e-39
0.28921795 0.24397151 0.090955079 9.1897069e-39
0.28693432 0.2442371 0.092911363 9.1900544e-39
0.28501305 0.24410754 0.09288913 9.6477858e-39
0.28309175 0.24397799 0.092866838 1.001694e-38
0.28117049 0.24384844 0.092844605 1.0200986e-38
0.27867711 0.24430965 0.095789731 1.0384631e-38
0.27675009 0.24417971 0.095767438 1.0567199e-38
0.2748231 0.24404977 0.095745087 1.0659759e-38
0.27289611 0.24391985 0.095722735 1.0658691e-38
0.27156407 0.24320069 0.092733264 1.0566854e-38
0.26964277 0.24307114 0.092711031 1.1851832e-38
0.2677215 0.24294159 0.092688739 1.3045712e-38
0.26580024 0.24281204 0.092666447 1.3414508e-38
0.26387894 0.24268247 0.092644215 1.3686408e-38
0.26195765 0.24255292 0.092621922 1.2582927e-38
0.26003638 0.24242337 0.09259969 1.1390501e-38
0.25811511 0.24229382 0.092577398 1.1391218e-38
0.25619382 0.24216427 0.092555165 1.1301544e-38
0.25362611 0.24262047 0.095499396 1.1949783e-38
0.25235122 0.24190517 0.092510641 1.2496474e-38
0.25042996 0.24177562 0.092488348 1.2682281e-38
0.2478451 0.24223067 0.09543246 1.2864172e-38
0.24591808 0.24210073 0.095410109 1.3508112e-38
0.24399109 0.24197079 0.095387757 1.4059131e-38
0.24138336 0.24242431 0.098331749 1.4059495e-38
0.2401371 0.24171092 0.095343113 1.397053e-38
0.23821008 0.24158098 0.095320761 1.2228885e-38
0.23628309 0.24145104 0.095298469 1.0389294e-38
0.23505969 0.24073921 0.09231025 1.0760931e-38
0.23313841 0.24060966 0.092287958 1.1037524e-38
0.23121713 0.24048011 0.092265725 1.2607705e-38
0.22929585 0.24035056 0.092243433 1.4165337e-38
0.22737457 0.24022101 0.0922212 1.1322758e-38
0.22594143 0.2397048 0.090221822 8.4737023e-39
0.22402395 0.23957551 0.09019959 6.5437191e-39
0.22285014 0.23886701 0.087211967 4.5201054e-39
0.22093838 0.23873809 0.087189794 4.5197425e-39
0.30843538 0.24335276 0.091267467 5.3322475e-39
0.3065179 0.24322346 0.091245234 2.1126018e-39
0.30426866 0.24348755 0.093202114 3.7677693e-39
0.30234739 0.243358 0.093179822 5.4219068e-39
0.30042613 0.24322845 0.093157589 8.0908969e-39
0.29850483 0.2430989 0.093135297 1.0753761e-38
0.29658353 0.24296935 0.093113065 1.0382466e-38
0.29466227 0.2428398 0.093090773 1.0015135e-38
0.292741 0.24271025 0.09306854 9.7399982e-39
0.2908197 0.2425807 0.093046248 9.4655637e-39
0.28889841 0.24245115 0.093023956 9.3744401e-39
0.28642803 0.24290821 0.095969617 9.2840395e-39
0.28450102 0.24277827 0.095947325 9.5573936e-39
0.28257406 0.24264833 0.095925033 9.9250957e-39
0.2800808 0.24310385 0.098870456 1.0016215e-38
0.27814806 0.24297354 0.098848164 1.0199515e-38
0.27621534 0.24284321 0.098825753 1.0383172e-38
0.27428263 0.24271289 0.098803341 1.0567213e-38
0.27234989 0.24258256 0.09878093 1.0567223e-38
0.27101204 0.24186872 0.095791042 1.0567581e-38
0.26908502 0.24173878 0.095768631 1.1117877e-38
0.26715803 0.24160884 0.095746338 1.1667463e-38
0.26523101 0.24147891 0.095723987 1.1852217e-38
0.26330402 0.24134897 0.095701694 1.2032653e-38
0.26137704 0.24121903 0.095679343 1.1483427e-38
0.25945002 0.24108909 0.095656991 1.0934214e-38
0.257523 0.24095915 0.095634699 1.1026414e-38
0.25559604 0.24082921 0.095612347 1.1027839e-38
0.25366902 0.24069928 0.095589995 1.1489875e-38
0.25174201 0.24056935 0.095567703 1.1852905e-38
0.24981502 0.24043941 0.095545352 1.2044101e-38
0.24722457 0.24088837 0.098489702 1.2224912e-38
0.24529186 0.24075805 0.09846741 1.2322855e-38
0.24335913 0.24062774 0.098444998 1.2410409e-38
0.24142642 0.24049741 0.098422587 1.1954842e-38
0.2394937 0.24036708 0.098400176 1.1495297e-38
0.23756097 0.24023676 0.098377764 1.0667334e-38
0.23562826 0.24010643 0.098355353 9.9333564e-39
0.23439902 0.23939991 0.095366716 7.910093e-39
0.23318122 0.23869416 0.092378318 5.9851461e-39
0.23125994 0.23856461 0.092356026 7.4570364e-39
0.22933866 0.23843506 0.092333794 9.0265201e-39
0.22741738 0.23830551 0.092311502 8.3826249e-39
0.2254961 0.23817596 0.092289269 7.7454993e-39
0.22357482 0.23804641 0.092266977 6.174952e-39
0.22165352 0.23791686 0.092244744 4.6094312e-39
0.21973225 0.23778731 0.092222452 4.426465e-39
0.30847809 0.24144107 0.091357589 3.7699749e-39
0.30623275 0.24170162 0.093314707 2.8346166e-40
0.30431145 0.24157207 0.093292415 4.0444192e-39
0.30239019 0.24144252 0.093270183 7.7296814e-39
0.30046892 0.24131297 0.09324789 9.2008472e-39
0.29803297 0.24176663 0.096194208 1.0577647e-38
0.29610598 0.24163669 0.096171916 1.0288853e-38
0.29417896 0.24150676 0.096149623 9.9293977e-39
0.29225194 0.24137683 0.096127212 9.8314582e-39
0.29032499 0.24124689 0.09610492 9.6492291e-39
0.28839797 0.24111696 0.096082628 9.4659253e-39
0.28592199 0.24156794 0.099028528 9.2822431e-39
0.28398925 0.24143761 0.099006116 9.5555874e-39
0.28205657 0.24130729 0.098983824 9.7403415e-39
0.2795577 0.24175674 0.10192937 9.9233021e-39
0.27761927 0.24162602 0.10190696 1.0015848e-38
0.27625841 0.24091633 0.09891659 1.0198795e-38
0.27432567 0.240786 0.098894179 1.0383909e-38
0.27239296 0.24065568 0.098871768 1.0475754e-38
0.27046025 0.24052535 0.098849356 1.0569026e-38
0.26852751 0.24039504 0.098826945 1.0476833e-38
0.2665948 0.24026471 0.098804533 1.0292808e-38
0.26527396 0.23955771 0.095814645 1.0293888e-38
0.26334697 0.23942778 0.095792234 1.0292796e-38
0.26141995 0.23929784 0.095769942 1.0383542e-38
0.25949296 0.2391679 0.09574759 1.0475402e-38
0.25756595 0.23903796 0.095725298 1.0659815e-38
0.25563896 0.23890802 0.095702946 1.0762049e-38
0.25306576 0.23935245 0.098647773 1.1036834e-38
0.25113302 0.23922214 0.098625362 1.1227684e-38
0.24920034 0.23909181 0.09860307 1.1415665e-38
0.24660429 0.23953471 0.10154754 1.1509666e-38
0.24466585 0.23940399 0.10152501 1.1148436e-38
0.24205264 0.23984571 0.10446936 1.0682803e-38
0.24078897 0.23914257 0.10148007 9.8541326e-39
0.23885053 0.23901185 0.10145766 8.9289295e-39
0.2369121 0.23888114 0.10143512 9.1957928e-39
0.23497367 0.23875046 0.10141271 9.4691511e-39
0.23373859 0.23804924 0.098423898 5.1446347e-39
0.23180588 0.23791891 0.098401487 8.3374036e-40
0.23058794 0.23721884 0.095412672 2.30023e-39
0.22866094 0.23708892 0.09539032 3.7796775e-39
0.22673394 0.23695898 0.095367968 5.4359787e-39
0.22602686 0.23588142 0.090402126 6.9986044e-39
0.22410938 0.23575212 0.090379894 5.8926198e-39
0.22293532 0.23505503 0.087391734 4.6998261e-39
0.22102356 0.23492613 0.087369561 4.4253874e-39
0.30819684 0.23991568 0.0934273 5.7089306e-39
0.30627555 0.23978613 0.093405008 7.0021973e-39
0.30435425 0.23965658 0.093382776 8.8471945e-39
0.30243301 0.23952703 0.093360484 1.0690708e-38
0.30051172 0.23939748 0.093338251 1.1516137e-38
0.29859042 0.23926793 0.093315959 1.2342275e-38
0.2961489 0.23971552 0.096262515 1.1878412e-38
0.29422188 0.23958558 0.096240222 1.1510689e-38
0.29176319 0.240032 0.099186599 1.0855621e-38
0.28983051 0.23990168 0.099164188 1.029315e-38
0.28735465 0.24034697 0.10211033 1.0108422e-38
0.28541619 0.24021626 0.10208791 9.9250901e-39
0.28347778 0.24008554 0.10206538 1.0016187e-38
0.28153932 0.23995483 0.10204297 1.0108035e-38
0.27960089 0.23982415 0.10202056 1.0199883e-38
0.27766246 0.23969343 0.10199803 1.0200958e-38
0.27572399 0.23956272 0.10197562 1.0475746e-38
0.27378559 0.23943201 0.10195309 1.0661578e-38
0.27184716 0.23930129 0.10193068 1.0478272e-38
0.27050328 0.23859845 0.098940313 1.0388233e-38
0.2685706 0.23846814 0.098917902 9.8368644e-39
0.26663786 0.23833781 0.09889549 9.2844179e-39
0.26470512 0.23820749 0.098873079 9.4688063e-39
0.26277244 0.23807716 0.098850667 9.7460855e-39
0.2608397 0.23794685 0.098828256 9.8378985e-39
0.25953591 0.23724672 0.095838249 1.0015156e-38
0.25697428 0.2376862 0.098783433 1.0581636e-38
0.25504154 0.23755588 0.098761022 1.1149511e-38
0.25246277 0.23799422 0.10170597 1.1424302e-38
0.25052434 0.23786351 0.10168356 1.170736e-38
0.24858591 0.2377328 0.10166115 1.1703789e-38
0.24532105 0.23873708 0.10757297 1.1708112e-38
0.24337117 0.23860562 0.10755032 1.1338276e-38
0.24142131 0.23847413 0.10752767 1.1063467e-38
0.23879106 0.23890901 0.11047202 9.4925583e-39
0.23752156 0.23821118 0.10748249 7.9259165e-39
0.23557168 0.2380797 0.10745996 7.2715311e-39
0.23362182 0.23794821 0.10743731 6.7144393e-39
0.23237517 0.23725195 0.10444802 4.5086119e-39
0.23043101 0.23712087 0.10442549 2.3030985e-39
0.22848685 0.23698977 0.10440296 2.9473553e-39
0.2265427 0.23685868 0.10438043 3.6817197e-39
0.30726802 0.23914769 0.099456728 7.7455245e-39
0.30533528 0.23901738 0.099434316 1.363485e-38
0.30389982 0.23831406 0.096442401 1.3650651e-38
0.30146986 0.23875673 0.099389493 1.3641321e-38
0.30004582 0.23805419 0.096397817 1.383037e-38
0.29708999 0.23906791 0.10231382 1.4007936e-38
0.29411131 0.24008009 0.10822946 1.355521e-38
0.29216146 0.2399486 0.10820693 1.2989792e-38
0.29021156 0.23981714 0.10818428 1.1970218e-38
0.28826171 0.23968565 0.10816175 1.0942825e-38
0.2868548 0.23898427 0.10517031 1.0749845e-38
0.28491068 0.23885319 0.10514778 1.0477552e-38
0.28296649 0.23872209 0.10512525 1.0475384e-38
0.28102237 0.238591 0.10510272 1.047647e-38
0.27907822 0.2384599 0.10508019 1.0475404e-38
0.27770564 0.23776084 0.10208923 1.0383211e-38
0.27576721 0.23763013 0.1020667 1.0658001e-38
0.27382874 0.23749942 0.10204428 1.0937818e-38
0.27189034 0.2373687 0.10202175 1.0571198e-38
0.26995188 0.23723799 0.10199934 1.0117039e-38
0.26801348 0.23710731 0.10197681 9.197962e-39
0.26607502 0.23697659 0.1019544 8.2821027e-39
0.26413658 0.23684588 0.10193199 8.734809e-39
0.26219815 0.23671517 0.10190946 9.1121885e-39
0.26025972 0.23658445 0.10188705 9.2983636e-39
0.25832129 0.23645374 0.10186452 9.4827997e-39
0.25638282 0.23632306 0.10184211 1.0501647e-38
0.2478289 0.24201354 0.13248605 1.1520097e-38
0.25186002 0.2366246 0.10476476 1.1894622e-38
0.24991587 0.2364935 0.10474223 1.2167616e-38
0.24797171 0.2363624 0.1047197 1.2075422e-38
0.2447014 0.2373549 0.110632 1.1891398e-38
0.24274583 0.23722303 0.11060935 1.1616973e-38
0.24079023 0.23709115 0.1105867 1.1337509e-38
0.23792766 0.23770683 0.11452049 9.1269904e-39
0.23596445 0.23757444 0.11449772 6.822457e-39
0.23400123 0.23744206 0.11447495 5.3415746e-39
0.23064323 0.23842867 0.12038618 3.8743534e-39
0.22796547 0.2388546 0.1233303 3.871478e-39
0.22598509 0.23872107 0.12330741 3.7785621e-39
0.22400472 0.23858754 0.1232844 3.6874384e-39
0.22202437 0.238454 0.12326139 3.5019962e-39
0.30920476 0.24235517 0.12436432 1.1044307e-38
0.30722436 0.24222164 0.12434143 9.2983454e-39
0.305244 0.24208809 0.12431842 7.6468423e-39
0.30633968 0.23835692 0.10548705 1.078585e-38
0.30439556 0.23822582 0.10546452 1.3926908e-38
0.3029485 0.23752746 0.10247236 1.3552388e-38
0.30050725 0.23796363 0.10541946 1.3179313e-38
0.29856306 0.23783253 0.10539693 1.3272949e-38
0.29439035 0.24015464 0.11824185 1.345699e-38
0.2924214 0.24002187 0.11821896 1.3089299e-38
0.28992677 0.24045447 0.12116557 1.2810474e-38
0.289015 0.23919138 0.11520427 1.2063504e-38
0.28776795 0.23830622 0.11122257 1.1400222e-38
0.28581238 0.23817435 0.1111998 1.1219793e-38
0.28440541 0.2374787 0.10820824 1.1035036e-38
0.28300983 0.23678379 0.10521668 1.1035742e-38
0.28106567 0.2366527 0.10519415 1.1031086e-38
0.27912152 0.2365216 0.10517162 1.1033245e-38
0.27774882 0.23582825 0.1021803 1.1025e-38
0.27581036 0.23569754 0.10215789 1.1310197e-38
0.27328905 0.23612832 0.10510403 1.1677183e-38
0.2713449 0.23599723 0.1050815 1.1778705e-38
0.26999509 0.2353054 0.10209042 1.1963441e-38
0.26745659 0.23573504 0.10503644 1.1324168e-38
0.26551244 0.23560394 0.10501391 1.0686312e-38
0.26356828 0.23547286 0.10499138 1.0867441e-38
0.26100689 0.23590094 0.10793704 1.1149413e-38
0.25967997 0.23521067 0.10494632 1.1238027e-38
0.25773582 0.23507957 0.10492378 1.1422469e-38
0.24987094 0.24015671 0.13260311 1.1609063e-38
0.24787341 0.24002203 0.13257986 1.1892118e-38
0.2458759 0.23988733 0.13255674 1.2259117e-38
0.24778748 0.23641144 0.11472648 1.2717198e-38
0.24582425 0.23627906 0.11470371 1.2440955e-38
0.24386103 0.23614667 0.11468107 1.2256919e-38
0.24189782 0.23601429 0.1146583 1.2349107e-38
0.23993462 0.23588191 0.11463553 1.2532776e-38
0.23729128 0.23630446 0.11758012 1.1149144e-38
0.23532234 0.23617171 0.11755735 9.7626306e-39
0.23197033 0.23714729 0.12346929 8.6605906e-39
0.22998996 0.23701376 0.1234464 7.5592527e-39
0.22730662 0.23743361 0.12639076 5.4398308e-39
0.22602922 0.23674668 0.12340051 3.3233264e-39
0.22404884 0.23661315 0.1233775 3.4130264e-39
0.22206849 0.23647961 0.12335461 3.5030752e-39
0.30924886 0.24038076 0.12445742 1.3538946e-38
0.3072685 0.24024723 0.12443453 1.3542881e-38
0.30528814 0.24011369 0.12441152 1.3539696e-38
0.30330777 0.23998016 0.12438864 1.3823138e-38
0.30181867 0.23928466 0.12139565 1.4098643e-38
0.29934701 0.23971309 0.12434274 1.336001e-38
0.29786935 0.23901837 0.12134999 1.2624992e-38
0.29538625 0.23944601 0.12429684 1.2808328e-38
0.29340589 0.23931248 0.12427384 1.2901249e-38
0.29142553 0.23917896 0.12425095 1.2717588e-38
0.28997076 0.23848577 0.12125844 1.2533499e-38
0.28852743 0.23779336 0.11826593 1.2164306e-38
0.28709552 0.2371017 0.11527377 1.1784781e-38
0.28585595 0.23622468 0.11129183 1.1694037e-38
0.28390038 0.23609281 0.11126918 1.1505696e-38
0.28249896 0.23540321 0.10827726 1.1601112e-38
0.28110898 0.23471442 0.10528558 1.1596808e-38
0.27916485 0.23458332 0.10526305 1.1600754e-38
0.27722067 0.23445222 0.10524052 1.1597529e-38
0.27527651 0.23432113 0.10521799 1.20646e-38
0.27333236 0.23419003 0.10519546 1.2432651e-38
0.2713882 0.23405895 0.10517293 1.3085893e-38
0.26944405 0.23392785 0.1051504 1.3722291e-38
0.25990081 0.24082217 0.14273149 1.3357466e-38
0.26111436 0.23773016 0.12687534 1.2986891e-38
0.25912827 0.23759623 0.12685233 1.308267e-38
0.25590801 0.23856929 0.13276643 1.3173442e-38
0.25308007 0.23917207 0.13670105 1.326529e-38
0.25191295 0.23829991 0.13272017 1.3263514e-38
0.24991544 0.23816523 0.13269693 1.2711802e-38
0.24791791 0.23803052 0.1326738 1.2162203e-38
0.24312249 0.2402859 0.14551264 1.2715349e-38
0.24110018 0.24014953 0.14548928 1.3265644e-38
0.24586798 0.23432176 0.1147961 1.2898304e-38
0.24390477 0.23418938 0.11477333 1.2530233e-38
0.24194156 0.23405699 0.11475056 1.3081595e-38
0.23930408 0.23447424 0.11769551 1.3633324e-38
0.23529521 0.23598918 0.12657613 1.3173786e-38
0.23399481 0.23530643 0.1235854 1.2711376e-38
0.23132302 0.23572133 0.12653011 1.1978123e-38
0.22933693 0.23558742 0.1265071 1.114441e-38
0.22735086 0.2354535 0.1264841 7.0053391e-39
0.22536477 0.23531957 0.12646109 2.7715946e-39
0.22409296 0.23463875 0.1234706 3.1375171e-39
0.22283259 0.23395866 0.12048036 3.5041444e-39
0.22230941 0.2327332 0.11452311 3.3208335e-39
0.22034618 0.23260084 0.11450034 3.1368108e-39
0.30929297 0.23840636 0.12455052 1.3635461e-38
0.30731261 0.23827283 0.12452763 1.3451777e-38
0.30485255 0.23869632 0.12747508 1.3360647e-38
0.30286646 0.23856241 0.12745208 1.2622361e-38
0.30137151 0.23787223 0.12445873 1.188696e-38
0.29889429 0.23829456 0.12740606 1.1517823e-38
0.2969082 0.23816064 0.12738305 1.1152315e-38
0.29492208 0.23802671 0.12736005 1.1520774e-38
0.292936 0.23789279 0.12733704 1.1795214e-38
0.29094991 0.23775887 0.12731403 1.1889569e-38
0.2894893 0.23707101 0.12432104 1.1982813e-38
0.2880401 0.23638391 0.12132841 1.1702256e-38
0.28713924 0.23514441 0.11536616 1.1421385e-38
0.28463343 0.23556483 0.1183129 1.1510366e-38
0.28321281 0.23487966 0.11532062 1.16926e-38
0.28198832 0.23401123 0.11133844 1.169403e-38
0.28059253 0.23332775 0.1083464 1.1786219e-38
0.27864265 0.23319626 0.10832375 1.1695813e-38
0.26888624 0.24059328 0.14888173 1.1607206e-38
0.26685822 0.24045652 0.14885825 1.1791952e-38
0.26541287 0.23976967 0.14586562 1.207569e-38
0.26339054 0.23963331 0.14584213 1.2439064e-38
0.26196232 0.23894763 0.14284974 1.290042e-38
0.25994575 0.23881166 0.14282626 1.2712109e-38
0.25853467 0.23812711 0.13983411 1.252559e-38
0.25652382 0.23799154 0.13981074 1.2621036e-38
0.25512993 0.23730817 0.13681859 1.2625359e-38
0.25312477 0.23717296 0.13679534 1.2624301e-38
0.25111961 0.23703775 0.1367721 1.2623566e-38
0.24911448 0.23690253 0.13674885 1.2251184e-38
0.24646947 0.23731357 0.13969427 1.1971675e-38
0.24316753 0.23826969 0.14560777 1.2251072e-38
0.24114522 0.23813331 0.1455844 1.2528034e-38
0.23912291 0.23799695 0.14556092 1.2435144e-38
0.23776332 0.23731591 0.14256924 1.2343653e-38
0.23574673 0.23717992 0.14254588 1.2712414e-38
0.23665139 0.23468694 0.12966067 1.2990072e-38
0.23465958 0.23455264 0.12963754 1.2898235e-38
0.23266779 0.23441832 0.12961453 1.2900034e-38
0.22868416 0.23414971 0.12956828 7.7486368e-39
0.22739512 0.23347341 0.12657756 5.6224242e-39
0.22540903 0.23333947 0.12655443 3.4973089e-39
0.22342294 0.23320556 0.12653142 3.4105096e-39
0.22287659 0.23198998 0.12057322 3.4123019e-39
0.22090194 0.23185682 0.12055033 3.4130166e-39
0.22038993 0.23064354 0.11459261 3.5055807e-39
0.30886894 0.23698407 0.12761456 1.3635461e-38
0.30388165 0.24034438 0.14640588 1.3359233e-38
0.30185938 0.24020801 0.14638251 1.3081204e-38
0.29983705 0.24007165 0.14635903 1.1326275e-38
0.2973237 0.24048585 0.14930612 9.5828566e-39
0.29579246 0.23979893 0.14631218 9.6714859e-39
0.2942726 0.23911278 0.14331836 9.6761761e-39
0.292256 0.23897679 0.14329499 1.0235108e-38
0.29126725 0.23774278 0.13733107 1.0693931e-38
0.29047453 0.23632742 0.13037747 1.1062713e-38
0.28848273 0.23619312 0.13035446 1.1428248e-38
0.28649092 0.23605882 0.13033134 1.1240977e-38
0.28449911 0.23592451 0.13030821 1.0961886e-38
0.27726322 0.24107876 0.15899426 1.1416763e-38
0.27576435 0.240394 0.15600079 1.1788041e-38
0.27372301 0.24025635 0.15597719 1.1880227e-38
0.27224129 0.23957276 0.15298373 1.1880944e-38
0.27020565 0.23943551 0.15296012 1.1696554e-38
0.26893142 0.23857135 0.1489771 1.1511437e-38
0.2669034 0.23843461 0.14895362 1.1603619e-38
0.26487538 0.23829785 0.14893001 1.1604684e-38
0.2634356 0.23761712 0.14593726 1.1785831e-38
0.26141331 0.23748076 0.14591378 1.197384e-38
0.26059034 0.23625791 0.13995188 1.2065351e-38
0.25857949 0.23612231 0.13992864 1.2066437e-38
0.25656861 0.23598674 0.13990527 1.2066086e-38
0.25517458 0.23530906 0.13691288 1.2069329e-38
0.25316942 0.23517388 0.13688964 1.2074007e-38
0.25053602 0.23557997 0.13983542 1.1976416e-38
0.24852514 0.23544437 0.13981205 1.1880979e-38
0.24587458 0.23584932 0.14275759 1.1697286e-38
0.2432126 0.2362535 0.1457029 1.1789816e-38
0.24119028 0.23611712 0.14567941 1.1789809e-38
0.23916797 0.23598076 0.14565605 1.1970605e-38
0.23714569 0.2358444 0.14563257 1.2157123e-38
0.23512338 0.23570804 0.14560908 1.2250373e-38
0.23602177 0.23323938 0.1327228 1.2344359e-38
0.23402426 0.23310468 0.13269967 1.271206e-38
0.23202673 0.23297 0.13267654 1.2984703e-38
0.23002921 0.23283529 0.1326533 8.6662911e-39
0.22803167 0.23270062 0.13263017 4.338542e-39
0.22603415 0.23256591 0.13260704 4.2384542e-39
0.22474493 0.23189531 0.12961584 4.1451852e-39
0.22346719 0.23122548 0.12662488 3.6870853e-39
0.2214811 0.23109156 0.12660187 3.2289868e-39
0.22094592 0.22988813 0.1206432 3.5048549e-39
0.30801505 0.24110834 0.1594463 6.7305991e-39
0.30596796 0.24097031 0.15942258 1.0141407e-38
0.30438891 0.24028587 0.15642792 1.3543985e-38
0.3018738 0.24069424 0.15937513 1.3267763e-38
0.3003062 0.24001057 0.15638059 1.2992249e-38
0.29826483 0.23987293 0.15635699 1.1699012e-38
0.29622346 0.23973529 0.15633327 1.0497302e-38
0.29467872 0.23905316 0.15333885 9.8480397e-39
0.29331285 0.23819044 0.1493544 9.2062801e-39
0.29128483 0.23805368 0.14933091 9.9481513e-39
0.2897706 0.23737364 0.14633697 1.0784358e-38
0.28774828 0.23723727 0.14631349 1.1334653e-38
0.28572598 0.23710091 0.14629012 1.1885668e-38
0.28246486 0.23822959 0.15319735 1.1700563e-38
0.28042921 0.23809233 0.15317374 1.1512936e-38
0.27730882 0.23903784 0.15909046 1.2067527e-38
0.27580982 0.2383588 0.15609676 1.2621755e-38
0.27376848 0.23822115 0.15607315 1.2252964e-38
0.27116758 0.23862374 0.15901929 1.1885626e-38
0.26912051 0.23848571 0.15899557 1.1234172e-38
0.26764441 0.23780821 0.1560021 1.0495878e-38
0.26560304 0.23767056 0.1559785 1.0951445e-38
0.26356167 0.23753291 0.15595478 1.1320936e-38
0.26289254 0.23613921 0.1490019 1.1600026e-38
0.26145834 0.23546456 0.14600891 1.1969564e-38
0.26063514 0.23425311 0.14004642 1.2159734e-38
0.25922954 0.23358038 0.13705367 1.2343759e-38
0.25722438 0.23344517 0.13703042 1.1972826e-38
0.25521925 0.23330995 0.13700718 1.16037e-38
0.25321409 0.23317477 0.13698393 1.1604067e-38
0.25058079 0.23357517 0.13992995 1.1693739e-38
0.24793608 0.2339748 0.14287573 1.1696239e-38
0.24527994 0.23437366 0.14582139 1.1698044e-38
0.24261233 0.23477173 0.14876693 1.1789172e-38
0.24058431 0.234635 0.14874345 1.1880257e-38
0.23768067 0.23520981 0.15267831 1.2247207e-38
0.23564503 0.23507255 0.15265483 1.2614878e-38
0.23450026 0.23422474 0.14867288 1.2617001e-38
0.23247224 0.23408797 0.14864939 1.2527318e-38
0.22607864 0.2305744 0.13270098 4.1444859e-39
0.22478931 0.22990951 0.12970942 3.9633135e-39
0.22351143 0.22924538 0.12671822 3.5963176e-39
0.22152534 0.22911146 0.12669522 3.2293428e-39
0.30806065 0.23906745 0.1595425 5.1754955e-39
0.30601358 0.23892942 0.15951878 9.3181037e-39
0.30396649 0.23879138 0.15949506 1.3451057e-38
0.3019194 0.23865335 0.15947133 1.3174832e-38
0.29987234 0.23851532 0.15944761 1.289968e-38
0.29782525 0.23837729 0.15942389 1.2164274e-38
0.29626894 0.23770009 0.15642935 1.1318404e-38
0.29472408 0.23702365 0.15343457 1.0016228e-38
0.29268843 0.2368864 0.15341097 8.7381021e-39
0.29065281 0.23674913 0.15338737 9.7497653e-39
0.28861713 0.23661187 0.15336376 1.0771787e-38
0.28658149 0.2364746 0.15334028 1.1513996e-38
0.28454584 0.23633735 0.15331668 1.2252287e-38
0.28251022 0.23620008 0.15329307 1.2162982e-38
0.27993804 0.23659889 0.15624005 1.2071144e-38
0.27735442 0.23699695 0.15918666 1.2718653e-38
0.27530736 0.2368589 0.15916294 1.3359694e-38
0.2732603 0.23672087 0.15913922 1.262428e-38
0.27121317 0.23658285 0.15911549 1.18824e-38
0.26916611 0.23644482 0.15909177 1.0675244e-38
0.26711905 0.23630677 0.15906805 9.4734783e-39
0.26507196 0.23616874 0.15904433 1.0292812e-38
0.26302487 0.23603071 0.1590206 1.104007e-38
0.26156577 0.23536006 0.15602714 1.1507875e-38
0.26090968 0.23398057 0.14907378 1.1881348e-38
0.26067993 0.23224834 0.14014095 1.2259484e-38
0.25866908 0.23211274 0.1401177 1.2618914e-38
0.25726908 0.23144609 0.1371246 1.1877037e-38
0.25526392 0.23131087 0.13710147 1.1138773e-38
0.25325876 0.23117566 0.13707823 1.1228463e-38
0.2512536 0.23104045 0.13705498 1.1326027e-38
0.24671356 0.23302335 0.14890927 1.1511841e-38
0.24383296 0.23359209 0.15284485 1.1696947e-38
0.24179731 0.23345482 0.15282124 1.1788425e-38
0.23911078 0.23384593 0.1557669 1.1880588e-38
0.23641282 0.23423627 0.15871221 1.2523406e-38
0.23502806 0.23357064 0.15571958 1.3075831e-38
0.23365474 0.23290578 0.15272695 1.2891781e-38
0.23094533 0.23329534 0.15567225 1.2706327e-38
0.22890398 0.23315769 0.15564865 8.0177057e-39
0.30955249 0.23787944 0.16362494 7.7444287e-39
0.30704147 0.23827668 0.16657287 9.0379687e-39
0.30544311 0.23760234 0.16357738 1.0969694e-38
0.30338842 0.2374638 0.16355354 1.2991504e-38
0.3013337 0.23732525 0.16352969 1.2807469e-38
0.29991794 0.23647439 0.15954393 1.271599e-38
0.29787084 0.23633637 0.15952021 1.2156366e-38
0.29582375 0.23619832 0.15949649 1.1493429e-38
0.29427308 0.23552723 0.15650159 1.0755158e-38
0.29223168 0.23538959 0.15647799 9.928344e-39
0.29069814 0.23471963 0.15348309 1.0580583e-38
0.288149 0.23511429 0.15643066 1.1221981e-38
0.28662682 0.23444511 0.15343589 1.1695132e-38
0.28406626 0.23483899 0.15638334 1.2160446e-38
0.28255555 0.23417059 0.1533888 1.2071518e-38
0.2805199 0.23403333 0.15336519 1.1982198e-38
0.27794215 0.23442605 0.15631241 1.2164438e-38
0.27462253 0.23552413 0.16322023 1.2443519e-38
0.27330589 0.23467995 0.15923554 1.2072935e-38
0.27051312 0.23524703 0.16317254 1.1793795e-38
0.26845843 0.23510848 0.16314882 1.1040769e-38
0.2664037 0.23496993 0.16312498 1.0194878e-38
0.26434898 0.23483139 0.16310114 1.0666968e-38
0.26229429 0.23469284 0.16307729 1.1129774e-38
0.2602396 0.23455429 0.16305357 1.1415724e-38
0.25897631 0.23371372 0.15906948 1.1605156e-38
0.25752854 0.23304957 0.15607578 1.1885347e-38
0.2506471 0.23711789 0.17981189 1.2159028e-38
0.24855998 0.23697713 0.1797877 1.1691207e-38
0.24585643 0.2373614 0.18273348 1.1315618e-38
0.24376363 0.23722029 0.18270928 1.1507544e-38
0.24020573 0.23830232 0.18961436 1.1787706e-38
0.23957796 0.23693804 0.18266076 1.1972802e-38
0.24174725 0.23330736 0.16283923 1.2156463e-38
0.23969254 0.23316881 0.16281539 1.2249006e-38
0.23698708 0.23355295 0.16576105 1.2340096e-38
0.23492667 0.23341401 0.16573721 1.2618085e-38
0.23352844 0.23275317 0.16274399 1.2895013e-38
0.23147373 0.23261462 0.16272014 1.0410777e-38
0.22941902 0.23247607 0.16269642 8.0212832e-39
0.30959827 0.23583093 0.16372162 1.0507693e-38
0.30708739 0.23622245 0.16666967 1.2804631e-38
0.30548888 0.23555383 0.16367394 1.262237e-38
0.30343419 0.23541529 0.16365021 1.2439064e-38
0.30137947 0.23527674 0.16362637 1.2531266e-38
0.29932475 0.23513819 0.16360253 1.2529822e-38
0.29791647 0.23429544 0.15961641 1.2159245e-38
0.29586935 0.23415741 0.15959269 1.1688225e-38
0.29431856 0.23349202 0.15659755 1.1399084e-38
0.29227716 0.23335437 0.15657395 1.1134025e-38
0.29074347 0.23269011 0.15357882 1.1421416e-38
0.28819448 0.23307908 0.15652663 1.1603298e-38
0.28667217 0.23241559 0.15353161 1.1791637e-38
0.28411174 0.23280378 0.1564793 1.1978197e-38
0.28260088 0.23214106 0.1534844 1.1888533e-38
0.28056526 0.23200381 0.15346092 1.17949e-38
0.27798763 0.23239084 0.15640837 1.1604766e-38
0.27466831 0.23347563 0.16331679 1.1428259e-38
0.27261358 0.23333707 0.16329294 1.1614072e-38
0.26999977 0.23372164 0.16623992 1.1697992e-38
0.26793933 0.23358272 0.16621608 1.1315561e-38
0.26644948 0.23292142 0.16322154 1.0948606e-38
0.26439476 0.23278289 0.1631977 1.114235e-38
0.26175809 0.23316592 0.16614443 1.1234913e-38
0.25891399 0.23372193 0.1700812 1.1328193e-38
0.25684595 0.23358247 0.17005724 1.1331792e-38
0.25477791 0.23344302 0.17003328 1.1516909e-38
0.25069359 0.23503709 0.17991 1.1697322e-38
0.2479959 0.23541601 0.18285614 1.1596129e-38
0.24508131 0.23596726 0.18679196 1.1415685e-38
0.24152945 0.23703636 0.19369775 1.1790202e-38
0.24025266 0.23620251 0.1897133 1.2157895e-38
0.23962459 0.23485152 0.18275911 1.2434472e-38
0.23667951 0.23540072 0.18669456 1.2618135e-38
0.23608384 0.23405194 0.17974073 1.2710681e-38
0.23486425 0.23322195 0.17575699 1.2711729e-38
0.23409744 0.23204856 0.16979355 1.2713855e-38
0.23202939 0.2319091 0.16976959 1.2615205e-38
0.23085172 0.23108192 0.16578633 8.0187693e-39
0.30142525 0.23322825 0.16372293 1.2346179e-38
0.29937053 0.2330897 0.16369909 1.2345808e-38
0.28415722 0.23076858 0.15657526 1.2348037e-38
0.28264624 0.23011155 0.15358013 1.234768e-38
0.28061062 0.2299743 0.15355653 1.2438425e-38
0.27803311 0.23035564 0.15650433 1.2253305e-38
0.27416652 0.23194531 0.16638452 1.2071061e-38
0.27210611 0.23180638 0.16636068 1.2071053e-38
0.27004567 0.23166744 0.16633683 1.20689e-38
0.26798522 0.23152852 0.16631299 1.1694742e-38
0.26649526 0.23087293 0.16331822 1.1417501e-38
0.26444054 0.23073439 0.16329437 1.1330388e-38
0.26180398 0.23111172 0.16624135 1.1338618e-38
0.25896007 0.23166011 0.17017835 1.1241379e-38
0.25629872 0.23203579 0.17312509 1.1152775e-38
0.25422496 0.23189595 0.17310101 1.0874041e-38
0.25074011 0.23295626 0.18000823 1.0690343e-38
0.24804252 0.2333295 0.18295449 1.0317951e-38
0.2451281 0.23387316 0.18689066 1.0042798e-38
0.24240574 0.2342447 0.1898368 9.860196e-39
0.2409272 0.23358989 0.18684202 9.7726625e-39
0.24030456 0.2322526 0.17988724 9.7697898e-39
0.23821746 0.23211187 0.17986304 9.6808186e-39
0.23613034 0.23197114 0.17983884 9.5878999e-39
0.23491058 0.23114872 0.17585486 9.500344e-39
0.23414351 0.22998674 0.16989082 8.9414136e-39
0.27421242 0.22989109 0.16648144 1.2713884e-38
0.27215201 0.22975217 0.16645759 1.2622054e-38
0.27009156 0.22961323 0.16643363 1.243658e-38
0.26803112 0.22947431 0.16640979 1.2160706e-38
0.26654103 0.22882441 0.16341478 1.1789446e-38
0.26448631 0.22868587 0.16339093 1.1606162e-38
0.26184988 0.22905751 0.16633815 1.1423197e-38
0.25978944 0.22891857 0.1663143 1.1145887e-38
0.25634491 0.22996828 0.1732226 1.0871458e-38
0.25427115 0.22982845 0.17319852 1.0320088e-38
0.25018197 0.2313841 0.18307716 9.6765152e-39
0.24808915 0.23124298 0.18305296 9.125854e-39
0.24599631 0.23110186 0.18302864 8.5712452e-39
0.24162363 0.23282154 0.19389659 8.0184302e-39
0.24181066 0.23081963 0.18298012 7.3763034e-39
0.23971784 0.2306785 0.18295592 7.0993648e-39
0.2721979 0.22769797 0.16655439 8.9425235e-39
0.2537818 0.23606163 0.21895355 7.7432404e-39
0.25162035 0.23591588 0.21892852 7.5617218e-39
0.25004628 0.23526606 0.21593219 7.282628e-39
0.2472975 0.2356244 0.21887845 7.0099928e-39
0.24573484 0.23497534 0.21588224 6.3639157e-39
0.2480121 0.2311417 0.19406945 5.6306807e-39
0.24589831 0.23099917 0.19404489 5.7196589e-39
0.24234731 0.23202838 0.20095259 5.8114846e-39
0.24022019 0.23188494 0.20092791 5.257592e-39
0.23809306 0.23174152 0.20090324 4.7069475e-39
0.25382996 0.23390672 0.21905512 3.8728933e-39
0.25166851 0.23376097 0.21903008 3.6020657e-39
0.25009432 0.23311685 0.21603352 3.4133879e-39
0.24793857 0.23297149 0.2160086 3.1418261e-39
0.24578285 0.23282613 0.21598357 2.4028373e-39
0.24523878 0.23135476 0.20803505 1.5802597e-39
0.2430983 0.23121043 0.20801026 2.3099172e-39
0.24095783 0.23106611 0.20798546 3.0492675e-39
0.23943889 0.23042567 0.20498949 2.5854293e-39
0.23730412 0.23028173 0.2049647 2.0398029e-39
