# .PCD v0.7 - Point Cloud Data file format
VERSION 0.7
FIELDS x y z rgb
SIZE 4 4 4 4
TYPE F F F F
COUNT 1 1 1 1
WIDTH 1047
HEIGHT 1
VIEWPOINT 0 0 0 1 0 0 0
POINTS 1047
DATA ascii
1.0568647 0.3065871 0.46176833 1.3184707e-38
1.0542573 0.30641127 0.46173805 1.3184705e-38
1.0541945 0.30738026 0.46769887 1.3276543e-38
1.0490423 0.30605963 0.46167761 1.3185068e-38
1.0489566 0.30702707 0.46763819 1.3185067e-38
1.0463377 0.30685049 0.46760792 1.3276899e-38
1.0437188 0.30667388 0.46757752 1.3368731e-38
1.0410999 0.30649731 0.46754712 1.3368368e-38
1.038481 0.3063207 0.46751684 1.3276181e-38
1.0358622 0.30614412 0.46748644 1.3276545e-38
1.0332432 0.30596754 0.46745616 1.3184708e-38
1.0326593 0.30673918 0.47241729 1.3092511e-38
1.0300307 0.30656192 0.47238678 1.2999958e-38
1.0274024 0.30638471 0.47235638 1.3092151e-38
1.0247738 0.30620745 0.47232586 1.3275822e-38
1.0221455 0.30603024 0.47229546 1.3092151e-38
1.0195172 0.30585298 0.47226495 1.2908124e-38
1.0168886 0.30567577 0.47223455 1.2907408e-38
1.0142603 0.30549851 0.47220403 1.2999238e-38
1.0096732 0.30437821 0.46718293 1.2998873e-38
1.0090034 0.30514404 0.47214311 1.290632e-38
1.006375 0.30496684 0.47211272 1.2814842e-38
1.0037465 0.3047896 0.4720822 1.2723005e-38
1.0011182 0.30461237 0.4720518 1.2723004e-38
0.99848974 0.30443513 0.47202128 1.2722647e-38
0.99586135 0.3042579 0.47199088 1.263117e-38
0.99323285 0.30408067 0.47196037 1.2631167e-38
0.99060446 0.30390343 0.47192997 1.2630805e-38
0.98610324 0.30278888 0.46690983 1.253861e-38
0.98348433 0.3026123 0.46687955 1.2538608e-38
1.0963498 0.30584455 0.45737952 1.3920112e-38
1.0960346 0.3066248 0.46234411 1.3644246e-38
1.0911539 0.30549419 0.45731932 1.3368739e-38
1.0908198 0.30627316 0.46228367 1.3368739e-38
1.085958 0.30514383 0.45725912 1.3368739e-38
1.0833602 0.30496866 0.45722896 1.3277261e-38
1.0807621 0.30479348 0.45719892 1.3185425e-38
1.0781643 0.3046183 0.45716876 1.3185424e-38
1.0755664 0.30444312 0.45713872 1.318578e-38
1.0729685 0.30426794 0.45710856 1.3185777e-38
1.0752039 0.306182 0.46806484 1.3185779e-38
1.072585 0.30600542 0.46803445 1.3277617e-38
1.0699661 0.30582881 0.46800417 1.3369091e-38
1.0673473 0.30565223 0.46797377 1.3643878e-38
1.0647283 0.30547562 0.46794349 1.3827552e-38
1.0595303 0.30416334 0.46192116 1.3552409e-38
1.0569228 0.3039875 0.46189088 1.3185067e-38
1.0543153 0.3038117 0.46186072 1.3185068e-38
1.051708 0.30363587 0.46183044 1.3184707e-38
1.0491004 0.30346006 0.46180028 1.3185064e-38
1.0490149 0.30441609 0.46776134 1.3184705e-38
1.046396 0.30423951 0.46773094 1.3368378e-38
1.0437772 0.3040629 0.46770066 1.3552046e-38
1.0411582 0.30388632 0.46767026 1.3459849e-38
1.0385394 0.30370972 0.46763998 1.3276181e-38
1.0359206 0.30353314 0.46760958 1.3276185e-38
1.0333016 0.30335656 0.46757931 1.3184346e-38
1.0306828 0.30317995 0.46754891 1.3092868e-38
1.0280638 0.30300337 0.46751851 1.3000674e-38
1.025445 0.30282676 0.46748823 1.3184346e-38
1.0228261 0.30265018 0.46745783 1.3368015e-38
1.0202072 0.3024736 0.46742755 1.3183983e-38
1.0175883 0.302297 0.46739715 1.2908115e-38
1.0149693 0.30212042 0.46736676 1.2907754e-38
1.0123506 0.30194381 0.46733648 1.2907397e-38
1.0097315 0.30176723 0.46730608 1.2907041e-38
1.0071127 0.30159065 0.4672758 1.2907038e-38
1.0044938 0.30141404 0.4672454 1.2814842e-38
1.0038052 0.30216911 0.47220582 1.2723365e-38
1.0011767 0.30199185 0.4721753 1.2723365e-38
0.99663717 0.30088428 0.46715432 1.272301e-38
0.99401826 0.3007077 0.46712404 1.2722654e-38
0.99139935 0.30053109 0.46709365 1.2722648e-38
0.9887805 0.30035451 0.46706337 1.2630807e-38
0.98616159 0.3001779 0.46703297 1.253897e-38
0.98354268 0.30000132 0.46700257 1.253861e-38
1.0990056 0.30342963 0.45753175 1.4013008e-38
1.0964077 0.30325446 0.45750171 1.3827908e-38
1.0938097 0.30307928 0.45747155 1.3644243e-38
1.0912118 0.3029041 0.45744151 1.3460214e-38
1.0886139 0.30272892 0.45741135 1.3460575e-38
1.0860159 0.30255374 0.45738131 1.3369099e-38
1.083418 0.30237857 0.45735115 1.3277264e-38
1.0808201 0.30220339 0.45732111 1.3185068e-38
1.0782223 0.30202821 0.45729095 1.3185425e-38
1.0778406 0.30279446 0.46225518 1.3277618e-38
1.0730264 0.30167785 0.45723075 1.318578e-38
1.0752623 0.30357099 0.46818799 1.3094305e-38
1.0726433 0.30339441 0.46815759 1.3185783e-38
1.0700245 0.3032178 0.46812731 1.3368732e-38
1.0674056 0.30304122 0.46809691 1.3460205e-38
1.0647867 0.30286461 0.46806651 1.3643881e-38
1.0595883 0.30156374 0.4620437 1.3460214e-38
1.0569808 0.30138791 0.46201354 1.3276546e-38
1.0543735 0.3012121 0.46198326 1.3276548e-38
1.0517659 0.30103627 0.4619531 1.3276183e-38
1.0491586 0.30086046 0.46192282 1.3184341e-38
1.0490732 0.30180508 0.46788448 1.3092151e-38
1.0464544 0.3016285 0.46785408 1.3184348e-38
1.0438356 0.30145189 0.4678238 1.336766e-38
1.0412166 0.30127531 0.46779341 1.3275823e-38
1.0385978 0.3010987 0.46776313 1.3275823e-38
1.0359789 0.30092213 0.46773273 1.3276182e-38
1.03336 0.30074555 0.46770233 1.3275822e-38
1.0307411 0.30056894 0.46767205 1.3092867e-38
1.0301479 0.30132094 0.47263402 1.3001033e-38
1.0275195 0.30114374 0.4726035 1.309287e-38
1.0228844 0.30003917 0.46758097 1.3276179e-38
1.0202656 0.29986259 0.46755069 1.3092145e-38
1.0176466 0.29968598 0.4675203 1.2908107e-38
1.0170058 0.3004348 0.47248167 1.290774e-38
1.0124089 0.2993328 0.46745962 1.2815914e-38
1.0097899 0.29915622 0.46742922 1.2815924e-38
1.007171 0.29897964 0.46739894 1.2907398e-38
1.0045521 0.29880303 0.46736854 1.2815558e-38
1.0019333 0.29862645 0.46733814 1.2723726e-38
0.99931437 0.29844984 0.46730787 1.2723368e-38
0.99669552 0.29827327 0.46727747 1.2723014e-38
0.99407661 0.29809669 0.46724719 1.2722659e-38
0.9914577 0.29792008 0.46721679 1.2814128e-38
0.9865796 0.29664078 0.46119767 1.2630807e-38
0.98397213 0.29646495 0.4611674 1.253897e-38
0.98136467 0.29628915 0.46113724 1.2538969e-38
1.0938675 0.30048919 0.45759374 1.3644601e-38
1.0912697 0.30031401 0.45756358 1.3552765e-38
1.0886717 0.30013883 0.45753354 1.346057e-38
1.0860739 0.29996365 0.45750338 1.3369092e-38
1.0834758 0.29978848 0.45747334 1.3277615e-38
1.080878 0.2996133 0.45744318 1.3093587e-38
1.0782801 0.29943812 0.45741314 1.3185784e-38
1.0756822 0.29926294 0.45738298 1.3277617e-38
1.0730842 0.29908776 0.45735294 1.3093943e-38
1.0753206 0.30096 0.46831113 1.2910635e-38
1.0727017 0.30078343 0.46828073 1.3093951e-38
1.0700828 0.30060682 0.46825033 1.3276901e-38
1.0674639 0.30043024 0.46822006 1.3368373e-38
1.0648451 0.30025363 0.46818966 1.346021e-38
1.0596464 0.29896414 0.46216625 1.3460213e-38
1.057039 0.29878834 0.46213609 1.3368739e-38
1.0544316 0.29861251 0.46210593 1.3368383e-38
1.0518241 0.2984367 0.46207565 1.3276185e-38
1.0492166 0.29826087 0.46204549 1.3092151e-38
1.0466092 0.29808506 0.46201521 1.2908841e-38
1.0465128 0.29901752 0.46797723 1.3092155e-38
1.0413942 0.29773343 0.46195477 1.3183992e-38
1.041275 0.29866433 0.46791655 1.3183993e-38
1.0386561 0.29848772 0.46788615 1.318399e-38
1.0360372 0.29831114 0.46785587 1.3276182e-38
1.0334183 0.29813457 0.46782547 1.3276179e-38
1.0307994 0.29795796 0.46779519 1.3185417e-38
1.0302064 0.29870045 0.47275752 1.300103e-38
1.0255616 0.29760477 0.46773452 1.3092868e-38
1.0229428 0.29742819 0.46770412 1.3092508e-38
1.0203239 0.29725161 0.46767372 1.3000312e-38
1.017705 0.297075 0.46764344 1.2908113e-38
1.0150862 0.29689842 0.46761304 1.2815914e-38
1.014436 0.29763708 0.47257477 1.2724444e-38
1.0098484 0.29654524 0.46755236 1.2816288e-38
1.0072293 0.29636866 0.46752197 1.2815924e-38
1.0046105 0.29619205 0.46749169 1.2724083e-38
1.0039222 0.29692814 0.47245294 1.2631889e-38
0.99937272 0.29583886 0.46743101 1.2631171e-38
0.99675387 0.29566228 0.46740061 1.2631174e-38
0.99413496 0.29548571 0.46737033 1.2722654e-38
0.99151605 0.2953091 0.46733993 1.2814483e-38
0.9888972 0.29513252 0.46730953 1.2722644e-38
0.9862783 0.29495591 0.46727926 1.253933e-38
0.98365939 0.29477933 0.46724886 1.253933e-38
1.0942305 0.29714671 0.45274967 1.3552402e-38
1.0916421 0.29697219 0.45271975 1.3553123e-38
1.0913275 0.29772392 0.45768577 1.3461644e-38
1.0887296 0.29754874 0.45765561 1.3461282e-38
1.0861317 0.29737356 0.45762557 1.3369445e-38
1.0835338 0.29719839 0.45759541 1.3369444e-38
1.0809358 0.29702321 0.45756537 1.3276897e-38
1.0783379 0.29684803 0.45753521 1.327726e-38
1.0757401 0.29667285 0.45750517 1.3369092e-38
1.0731421 0.29649767 0.45747501 1.3369447e-38
1.0753789 0.29834902 0.46843427 1.3369814e-38
1.0727601 0.29817244 0.46840388 1.3369103e-38
1.0701411 0.29799584 0.46837348 1.3368382e-38
1.0675223 0.29781926 0.4683432 1.3368735e-38
1.0649034 0.29764265 0.4683128 1.346057e-38
1.0597045 0.29636455 0.46228892 1.3368735e-38
1.057097 0.29618874 0.46225864 1.3369098e-38
1.0544896 0.29601291 0.46222848 1.3276548e-38
1.0518821 0.2958371 0.4621982 1.3183993e-38
1.0492747 0.29566127 0.46216804 1.3092514e-38
1.04919 0.29658312 0.46813077 1.3093233e-38
1.0465711 0.29640654 0.46810037 1.3092515e-38
1.0439522 0.29622993 0.46807009 1.3183636e-38
1.0413333 0.29605335 0.46803969 1.3183997e-38
1.0387144 0.29587674 0.46800929 1.3183993e-38
1.0360956 0.29570016 0.46797901 1.3183988e-38
1.0334766 0.29552358 0.46794862 1.3183983e-38
1.0328934 0.29625717 0.47291154 1.3092501e-38
1.030265 0.29607996 0.47288114 1.300031e-38
1.0276365 0.2959027 0.47285062 1.3092507e-38
1.0230012 0.29481721 0.46782726 1.3092149e-38
1.0223796 0.29554823 0.4727897 1.2999955e-38
1.0197513 0.29537103 0.47275931 1.2999595e-38
1.0171229 0.29519379 0.47272879 1.2908117e-38
1.0144944 0.29501656 0.47269839 1.2908124e-38
1.0118661 0.29483932 0.47266787 1.2908129e-38
1.0072877 0.29375768 0.46764511 1.2908121e-38
1.004669 0.29358107 0.46761483 1.2815918e-38
1.0020499 0.29340449 0.46758443 1.2723723e-38
0.99943107 0.29322788 0.46755415 1.2723361e-38
0.99681222 0.2930513 0.46752375 1.2723364e-38
0.99419332 0.29287472 0.46749336 1.2723365e-38
0.99157441 0.29269812 0.46746308 1.2814841e-38
0.98669577 0.29144159 0.46144289 1.2723003e-38
0.9840883 0.29126579 0.46141261 1.2631527e-38
0.98148084 0.29108995 0.46138245 1.2631168e-38
1.0942881 0.29456612 0.45287138 1.3461284e-38
1.0939834 0.29530901 0.457838 1.3461289e-38
1.0913854 0.29513383 0.45780796 1.336981e-38
1.0887876 0.29495865 0.4577778 1.3369807e-38
1.0861895 0.29478347 0.45774776 1.3369447e-38
1.0835917 0.29460829 0.4577176 1.3461281e-38
1.0809937 0.29443312 0.45768744 1.3461285e-38
1.0783958 0.29425794 0.4576574 1.3460931e-38
1.0757979 0.29408276 0.45762724 1.3369092e-38
1.0732 0.29390758 0.4575972 1.3644597e-38
1.0706021 0.2937324 0.45756704 1.3828272e-38
1.0728184 0.29556143 0.46852702 1.3644248e-38
1.0701995 0.29538485 0.46849662 1.3368736e-38
1.0675807 0.29520825 0.46846634 1.3368732e-38
1.0649617 0.29503167 0.46843594 1.3368729e-38
1.0597626 0.29376498 0.46241146 1.3368726e-38
1.0571551 0.29358914 0.4623813 1.3368735e-38
1.0545478 0.29341334 0.46235102 1.3276909e-38
1.0519402 0.29323751 0.46232086 1.3092875e-38
1.0493329 0.2930617 0.46229059 1.3184707e-38
1.0492483 0.2939721 0.46825391 1.3184705e-38
1.0466294 0.29379553 0.46822351 1.3184346e-38
1.0440106 0.29361895 0.46819311 1.3092514e-38
1.0434656 0.29434565 0.47315699 1.3092518e-38
1.0408373 0.29416841 0.47312659 1.3092155e-38
1.036154 0.29308918 0.46810216 1.3091793e-38
1.033535 0.29291257 0.46807176 1.3092148e-38
1.0329521 0.29363671 0.47303516 1.3091786e-38
1.0303235 0.29345948 0.47300476 1.3000311e-38
1.0276952 0.29328224 0.47297424 1.3092148e-38
1.0230595 0.29220623 0.4679504 1.3092147e-38
1.0224383 0.29292777 0.47291332 1.3091788e-38
1.01981 0.29275054 0.47288293 1.2999952e-38
1.0171814 0.2925733 0.47285241 1.2999954e-38
1.0145531 0.29239607 0.47282201 1.2999957e-38
1.0119246 0.29221883 0.47279149 1.2999959e-38
1.0092962 0.2920416 0.47276109 1.2999954e-38
1.0047272 0.29097009 0.46773797 1.2907754e-38
1.0021083 0.29079348 0.46770757 1.272372e-38
0.99948943 0.2906169 0.4676773 1.2723358e-38
0.99687058 0.29044029 0.4676469 1.2723721e-38
0.99196881 0.28919366 0.46162587 1.2723727e-38
0.98936135 0.28901783 0.46159571 1.2723365e-38
0.98675388 0.28884202 0.46156543 1.2723364e-38
0.98227262 0.28777641 0.45654351 1.2631527e-38
0.97967464 0.28760123 0.45651335 1.2631168e-38
1.0943458 0.29198554 0.45299309 1.3553121e-38
1.0940412 0.29271895 0.45796019 1.3461291e-38
1.0914433 0.29254377 0.45793003 1.3461288e-38
1.0888454 0.29236859 0.45789999 1.3461285e-38
1.0862474 0.29219341 0.45786983 1.3461284e-38
1.0836495 0.29201823 0.45783979 1.3461641e-38
1.0810516 0.29184306 0.45780963 1.3461644e-38
1.0784538 0.29166788 0.45777959 1.3369452e-38
1.0780729 0.2923961 0.46274561 1.3369094e-38
1.0732579 0.29131752 0.45771927 1.3553123e-38
1.0754956 0.29312703 0.46868044 1.3644601e-38
1.0728767 0.29295045 0.46865016 1.3460573e-38
1.0702578 0.29277384 0.46861976 1.3368375e-38
1.0676389 0.29259726 0.46858948 1.3368371e-38
1.0650201 0.29242066 0.46855909 1.34602e-38
1.0598207 0.29116538 0.46253413 1.3368358e-38
1.0572132 0.29098955 0.46250385 1.3368732e-38
1.0546057 0.29081374 0.46247369 1.3277271e-38
1.0519984 0.29063791 0.46244341 1.318543e-38
1.0493908 0.29046211 0.46241325 1.3185064e-38
1.0467834 0.29028627 0.46238297 1.3276538e-38
1.0466878 0.29118454 0.46834666 1.3184341e-38
1.0440689 0.29100794 0.46831626 1.3184345e-38
1.04145 0.29083136 0.46828598 1.3184349e-38
1.0388311 0.29065475 0.46825558 1.3183989e-38
1.0362122 0.29047817 0.4682253 1.3183988e-38
1.0335933 0.29030159 0.4681949 1.3183985e-38
1.0330105 0.29101622 0.47315878 1.3092147e-38
1.0303822 0.29083899 0.47312826 1.3092505e-38
1.0277536 0.29066175 0.47309786 1.3184341e-38
1.0251253 0.29048452 0.47306734 1.3275816e-38
1.0224968 0.29030728 0.47303694 1.3183979e-38
1.0198684 0.29013005 0.47300643 1.3092147e-38
1.01724 0.28995281 0.47297603 1.3092148e-38
1.0146116 0.28977558 0.47294551 1.3092148e-38
1.0119832 0.28959835 0.47291511 1.2999954e-38
1.0093547 0.28942111 0.4728846 1.2999951e-38
1.0047855 0.28835908 0.46786112 1.2908111e-38
1.0021666 0.2881825 0.46783072 1.2815913e-38
0.99954772 0.28800589 0.46780032 1.2724072e-38
0.99692887 0.28782931 0.46777004 1.2723721e-38
0.99202687 0.28659406 0.46174842 1.2723728e-38
0.9894194 0.28641823 0.46171826 1.2815562e-38
0.98681194 0.28624243 0.46168798 1.2723365e-38
0.9823305 0.28518632 0.45666558 1.2723364e-38
0.97973251 0.28501114 0.45663553 1.2631167e-38
1.0944035 0.28940496 0.45311481 1.3553483e-38
1.0918151 0.28923041 0.45308477 1.3553129e-38
1.0915012 0.28995365 0.45805222 1.3461291e-38
1.0866383 0.28888136 0.4530248 1.3460931e-38
1.0863054 0.28960329 0.45799202 1.3461288e-38
1.0837073 0.28942811 0.45796186 1.3461645e-38
1.0811095 0.28925294 0.45793182 1.3369812e-38
1.0785116 0.28907776 0.45790166 1.3369815e-38
1.0759137 0.28890258 0.45787162 1.3369455e-38
1.0755235 0.2896207 0.46283799 1.3461648e-38
1.0755539 0.29051602 0.46880358 1.3460931e-38
1.0729351 0.29033944 0.46877331 1.3368738e-38
1.0677011 0.28909326 0.46274728 1.3276899e-38
1.0650938 0.28891742 0.46271712 1.3368373e-38
1.0650784 0.28980967 0.46868223 1.3460206e-38
1.0598788 0.28856578 0.46265668 1.3368009e-38
1.0572712 0.28838998 0.46262652 1.3276539e-38
1.0546639 0.28821415 0.46259624 1.3277265e-38
1.0520564 0.28803834 0.46256608 1.3276902e-38
1.049449 0.28786251 0.4625358 1.3276541e-38
1.0468415 0.28768671 0.46250564 1.3276183e-38
1.0467461 0.28857353 0.4684698 1.3276185e-38
1.0441272 0.28839695 0.4684394 1.3276185e-38
1.0415083 0.28822035 0.46840912 1.3275826e-38
1.0388894 0.28804377 0.46837872 1.3276183e-38
1.0362706 0.28786719 0.46834832 1.3276183e-38
1.0356975 0.28857297 0.4733128 1.3276181e-38
1.0330691 0.28839573 0.47328228 1.3183985e-38
1.0304407 0.2882185 0.47325188 1.3092507e-38
1.0278122 0.28804126 0.47322136 1.3276176e-38
1.0251838 0.28786403 0.47319096 1.336765e-38
1.0249531 0.28874174 0.47915357 1.3275812e-38
1.0223132 0.28856373 0.47912294 1.3092145e-38
1.0196735 0.28838575 0.47909242 1.3092151e-38
1.0146701 0.28715509 0.47306913 1.3092151e-38
1.0120418 0.28697786 0.47303861 1.3091792e-38
1.0094132 0.28680062 0.47300822 1.2999952e-38
1.0067849 0.28662339 0.4729777 1.2908114e-38
1.0022249 0.28557149 0.46795386 1.2816274e-38
0.99960607 0.28539491 0.46792346 1.281627e-38
0.99698722 0.2852183 0.46789318 1.2724082e-38
0.99208498 0.2839945 0.46187109 1.2815921e-38
0.98947752 0.28381866 0.46184081 1.281556e-38
0.98687005 0.28364283 0.46181065 1.28152e-38
0.98238838 0.28259623 0.45678777 1.2815197e-38
0.97979039 0.28242105 0.45675761 1.2631166e-38
1.0970496 0.2869989 0.45326644 1.4014097e-38
1.0944612 0.28682435 0.45323652 1.3553488e-38
1.0918727 0.28664982 0.45320648 1.355313e-38
1.0892844 0.2864753 0.45317644 1.3460935e-38
1.0866959 0.28630075 0.45314652 1.3460933e-38
1.0863632 0.2870132 0.45811409 1.3460932e-38
1.0837653 0.28683802 0.45808405 1.3461289e-38
1.0811673 0.28666285 0.45805389 1.3369457e-38
1.0785694 0.28648767 0.45802385 1.3369818e-38
1.0759716 0.28631249 0.45799369 1.3461292e-38
1.0733736 0.28613731 0.45796365 1.3461289e-38
1.0756123 0.28790504 0.46892673 1.3552407e-38
1.0729934 0.28772846 0.46889645 1.3460572e-38
1.0677593 0.28649366 0.46286994 1.3369094e-38
1.0651517 0.28631783 0.46283966 1.3368733e-38
1.0625443 0.28614202 0.4628095 1.3368376e-38
1.0599368 0.28596619 0.46277922 1.3276542e-38
1.0573294 0.28579038 0.46274906 1.3276183e-38
1.054722 0.28561455 0.46271878 1.3276541e-38
1.0521145 0.28543875 0.46268862 1.3276541e-38
1.049507 0.28526291 0.46265846 1.3368016e-38
1.0468996 0.28508711 0.46262819 1.3459498e-38
1.0468044 0.28596255 0.46859294 1.3368027e-38
1.0416846 0.28473547 0.46256775 1.3368383e-38
1.0390773 0.28455964 0.46253759 1.3276543e-38
1.0389478 0.28543279 0.46850187 1.3276185e-38
1.036329 0.28525621 0.46847147 1.3276542e-38
1.03371 0.2850796 0.46844119 1.3276542e-38
1.0310912 0.28490302 0.46841079 1.3092511e-38
1.0304992 0.28559798 0.4733755 1.3000673e-38
1.0278708 0.28542075 0.47334498 1.3092505e-38
1.0252423 0.28524351 0.47331458 1.3275813e-38
1.022614 0.28506628 0.47328407 1.3183974e-38
1.0223721 0.28593183 0.47924703 1.3091786e-38
1.0197322 0.28575385 0.47921652 1.3092152e-38
1.0147288 0.2845346 0.47319275 1.3092152e-38
1.0121002 0.28435737 0.47316223 1.3000317e-38
1.0094719 0.28418013 0.47313172 1.290812e-38
1.0068433 0.2840029 0.47310132 1.2908115e-38
1.004215 0.28382567 0.4730708 1.2908113e-38
0.99966443 0.28278393 0.46804661 1.2724439e-38
0.99704558 0.28260732 0.46801633 1.2632606e-38
0.99442667 0.28243074 0.46798593 1.2724084e-38
0.99180776 0.28225416 0.46795553 1.2815558e-38
0.98692811 0.28104323 0.4619332 1.2723361e-38
0.98244625 0.28000614 0.45690995 1.2723001e-38
0.97984827 0.27983096 0.45687979 1.2723e-38
1.0971073 0.28441831 0.45338815 1.4105571e-38
1.0945189 0.28424376 0.45335823 1.3553486e-38
1.0919304 0.28406924 0.45332819 1.3552773e-38
1.0893421 0.28389472 0.45329815 1.3460936e-38
1.0867536 0.28372017 0.45326823 1.3460576e-38
1.086421 0.28442311 0.45823628 1.3460933e-38
1.0838232 0.28424793 0.45820612 1.3460932e-38
1.0812252 0.28407276 0.45817608 1.3369457e-38
1.0786273 0.28389758 0.45814592 1.3461651e-38
1.0760294 0.2837224 0.45811588 1.3461289e-38
1.0756397 0.2844215 0.46308321 1.3552765e-38
1.0756707 0.28529406 0.46904987 1.364424e-38
1.0730517 0.28511748 0.46901947 1.3552404e-38
1.0678173 0.28389406 0.46299249 1.3369089e-38
1.0652099 0.28371823 0.46296233 1.3368728e-38
1.0626024 0.28354242 0.46293205 1.3276538e-38
1.0599949 0.28336659 0.46290189 1.3276542e-38
1.0573875 0.28319079 0.46287161 1.3184705e-38
1.05478 0.28301495 0.46284145 1.3276182e-38
1.0521727 0.28283915 0.46281117 1.3276541e-38
1.0495651 0.28266332 0.46278101 1.3459853e-38
1.0469577 0.28248751 0.46275073 1.3643524e-38
1.0443501 0.28231168 0.46272057 1.355169e-38
1.0417428 0.28213587 0.46269029 1.3368736e-38
1.041625 0.28299838 0.46865529 1.3276901e-38
1.0365279 0.28178421 0.46262997 1.3185065e-38
1.0339204 0.2816084 0.46259969 1.3276543e-38
1.0337684 0.28246862 0.46856433 1.3276542e-38
1.0311495 0.28229201 0.46853393 1.3092871e-38
1.0285306 0.28211543 0.46850353 1.2817363e-38
1.0259117 0.28193882 0.46847326 1.3000674e-38
1.0232928 0.28176224 0.46844286 1.3183983e-38
1.0226724 0.28244579 0.47340769 1.3183623e-38
1.0200441 0.28226855 0.47337717 1.3092152e-38
1.0174156 0.28209132 0.47334677 1.3092159e-38
1.0147872 0.28191409 0.47331625 1.3000321e-38
1.0121589 0.28173685 0.47328585 1.2908483e-38
1.0095303 0.28155962 0.47325534 1.2816284e-38
1.006902 0.28138238 0.47322494 1.2907758e-38
1.0042735 0.28120515 0.47319442 1.2908111e-38
1.0016451 0.28102791 0.47316402 1.2724435e-38
0.99710393 0.27999634 0.46813947 1.2540766e-38
0.99448502 0.27981976 0.46810907 1.2631889e-38
0.99186611 0.27964315 0.46807867 1.2723721e-38
0.98698622 0.27844363 0.46205586 1.272372e-38
0.9806295 0.27656427 0.45203835 1.263153e-38
0.97804111 0.27638972 0.45200843 1.2814848e-38
1.0945765 0.28166318 0.45347983 1.3460933e-38
1.0919881 0.28148866 0.4534499 1.3460939e-38
1.0893997 0.28131413 0.45341986 1.3552773e-38
1.0868113 0.28113958 0.45338994 1.3460936e-38
1.0864789 0.28183302 0.45835847 1.3369458e-38
1.083881 0.28165784 0.45832831 1.3460933e-38
1.0812831 0.28148267 0.45829827 1.3552767e-38
1.0786853 0.28130749 0.45826811 1.3461289e-38
1.0760872 0.28113231 0.45823795 1.3461288e-38
1.0734894 0.28095713 0.45820791 1.3460926e-38
1.075729 0.28268304 0.46917301 1.3552044e-38
1.070483 0.28147027 0.46314532 1.3460925e-38
1.0678754 0.28129447 0.46311516 1.3461638e-38
1.065268 0.28111863 0.46308488 1.3460558e-38
1.0626605 0.28094283 0.46305472 1.3460206e-38
1.0600531 0.28076699 0.46302444 1.3368735e-38
1.0574455 0.28059119 0.46299428 1.3276899e-38
1.0548382 0.28041536 0.462964 1.3276899e-38
1.0522307 0.28023955 0.46293384 1.3368735e-38
1.0496233 0.28006372 0.46290356 1.3460212e-38
1.0470158 0.27988791 0.4628734 1.3551325e-38
1.0444083 0.27971208 0.46284312 1.3460203e-38
1.041801 0.27953628 0.46281296 1.3369089e-38
1.0416834 0.28038737 0.46877843 1.3277257e-38
1.0365859 0.27918461 0.46275252 1.3277618e-38
1.0364456 0.28003421 0.46871775 1.3277262e-38
1.0338267 0.27985761 0.46868747 1.3276902e-38
1.0312078 0.27968103 0.46865708 1.3185065e-38
1.028589 0.27950442 0.46862668 1.3184707e-38
1.02597 0.27932784 0.4685964 1.3184348e-38
1.0233512 0.27915126 0.468566 1.3275825e-38
1.0227311 0.2798253 0.47353119 1.3275825e-38
1.0201027 0.27964807 0.47350079 1.3367666e-38
1.0174742 0.27947086 0.47347027 1.3184e-38
1.0148458 0.27929363 0.47343987 1.3092159e-38
1.0122174 0.27911639 0.47340935 1.3000318e-38
1.009589 0.27893916 0.47337896 1.2908121e-38
1.0069605 0.27876192 0.47334844 1.2908118e-38
1.0043321 0.27858469 0.47331804 1.2999587e-38
1.0017037 0.27840745 0.47328752 1.2816265e-38
0.99907529 0.27823022 0.47325712 1.2724435e-38
0.99454337 0.27720875 0.46823221 1.2724439e-38
0.99192446 0.27703217 0.46820182 1.272408e-38
0.98704433 0.27584404 0.46217841 1.2815914e-38
0.98256201 0.27482596 0.45715421 1.2907043e-38
0.97996402 0.27465078 0.45712405 1.079125e-38
1.0969286 0.27994367 0.45860094 1.3369818e-38
1.0920458 0.27890807 0.45357162 1.3461302e-38
1.0894574 0.27873355 0.45354158 1.3553135e-38
1.086869 0.278559 0.45351154 1.3369461e-38
1.0865369 0.27924296 0.45848054 1.3185787e-38
1.0839388 0.27906778 0.4584505 1.3460932e-38
1.081341 0.27889261 0.45842034 1.364496e-38
1.0787431 0.27871743 0.4583903 1.3553123e-38
1.0761452 0.27854225 0.45836014 1.3369451e-38
1.0735472 0.27836707 0.45833009 1.3369092e-38
1.0731484 0.27904651 0.46329814 1.3369091e-38
1.0705409 0.2788707 0.46326786 1.3460568e-38
1.0679336 0.27869487 0.4632377 1.3460568e-38
1.065326 0.27851906 0.46320742 1.3552046e-38
1.0627186 0.27834323 0.46317726 1.3552404e-38
1.060111 0.27816743 0.4631471 1.3460929e-38
1.0575037 0.27799159 0.46311682 1.3368736e-38
1.0548962 0.27781579 0.46308666 1.3368736e-38
1.0522888 0.27763996 0.46305639 1.3368736e-38
1.0496813 0.27746415 0.46302623 1.3368735e-38
1.0470738 0.27728832 0.46299595 1.3368375e-38
1.0444664 0.27711248 0.46296579 1.3368731e-38
1.0418589 0.27693668 0.46293551 1.3368733e-38
1.0392516 0.27676085 0.46290535 1.3369095e-38
1.036644 0.27658504 0.46287507 1.3277262e-38
1.036504 0.2774232 0.4688409 1.3277625e-38
1.033885 0.27724662 0.4688105 1.3277258e-38
1.0312662 0.27707002 0.46878022 1.3368726e-38
1.0286473 0.27689344 0.46874982 1.3460566e-38
1.0236068 0.27570593 0.46272403 1.3368375e-38
1.0209993 0.27553013 0.46269375 1.3276182e-38
1.0207906 0.27636367 0.46865886 1.3459496e-38
1.0181718 0.27618706 0.46862847 1.3551693e-38
1.0155529 0.27601048 0.46859807 1.3367667e-38
1.0149044 0.27667311 0.47356337 1.3092515e-38
1.0122759 0.27649587 0.47353297 1.3092871e-38
1.0119891 0.27732417 0.47949702 1.3000318e-38
1.0093492 0.27714616 0.4794665 1.2999959e-38
1.0067093 0.27696815 0.47943586 1.2999951e-38
1.0040694 0.27679014 0.47940534 1.2908107e-38
0.99913383 0.2756097 0.47338063 1.2816633e-38
0.99460173 0.27459776 0.46835536 1.2816993e-38
0.99198282 0.27442116 0.46832496 1.27248e-38
0.98710239 0.27324447 0.46230096 1.2908471e-38
0.98261988 0.27223587 0.45727628 1.3089257e-38
0.98002189 0.27206069 0.45724624 8.7650827e-39
1.0921035 0.27632746 0.45369333 1.35535e-38
1.089515 0.27615294 0.45366329 1.3553855e-38
1.0869267 0.27597842 0.45363325 1.3462014e-38
1.0865947 0.27665284 0.45860273 1.3370175e-38
1.0839968 0.27647766 0.45857257 1.3461648e-38
1.0813988 0.27630249 0.45854253 1.3645318e-38
1.0788009 0.27612731 0.45851237 1.3461285e-38
1.0762031 0.27595213 0.45848233 1.3369092e-38
1.0736051 0.27577695 0.45845217 1.3369452e-38
1.0732064 0.27644691 0.46342069 1.3462004e-38
1.0705991 0.2762711 0.46339053 1.3460926e-38
1.0679916 0.27609527 0.46336025 1.3460214e-38
1.0653841 0.27591947 0.46333009 1.3460579e-38
1.0627767 0.27574363 0.46329981 1.3460575e-38
1.0601692 0.27556783 0.46326965 1.3369094e-38
1.0575618 0.275392 0.46323937 1.3368736e-38
1.0549543 0.27521619 0.46320921 1.3369096e-38
1.0523469 0.27504036 0.46317905 1.3369095e-38
1.0497394 0.27486455 0.46314877 1.3368735e-38
1.047132 0.27468872 0.46311861 1.3368735e-38
1.0445244 0.27451289 0.46308833 1.346057e-38
1.0419171 0.27433708 0.46305817 1.3552049e-38
1.0393096 0.27416125 0.46302789 1.3460573e-38
1.0367022 0.27398545 0.46299773 1.3368743e-38
1.0365623 0.27481222 0.46896404 1.3369106e-38
1.0339434 0.27463564 0.46893364 1.3276897e-38
1.0313245 0.27445903 0.46890336 1.3368717e-38
1.0287056 0.27428246 0.46887296 1.3368724e-38
1.0236648 0.27310634 0.46284658 1.3276536e-38
1.0210574 0.27293053 0.46281642 1.3276181e-38
1.01845 0.2727547 0.46278614 1.3184348e-38
1.0158424 0.2725789 0.46275598 1.3184708e-38
1.0132351 0.27240306 0.4627257 1.3184708e-38
1.0129923 0.27322289 0.46869093 1.309323e-38
1.0146878 0.27487025 0.47965175 1.3000675e-38
1.0120479 0.27469227 0.47962123 1.2908125e-38
1.009408 0.27451426 0.47959059 1.2908487e-38
1.0067681 0.27433625 0.47955996 1.3000315e-38
1.0041282 0.27415824 0.47952944 1.2908473e-38
0.99919242 0.27298921 0.47350425 1.2816637e-38
0.99656403 0.27281198 0.47347385 1.27248e-38
0.99204111 0.27181017 0.4684481 1.2724444e-38
1.0970443 0.27476346 0.45884532 1.3554569e-38
1.0921612 0.27374691 0.45381492 1.3553855e-38
1.0895727 0.27357236 0.453785 1.3553851e-38
1.0869844 0.27339783 0.45375496 1.3554565e-38
1.0866525 0.27406275 0.45872492 1.3554204e-38
1.0840547 0.27388757 0.45869476 1.3553842e-38
1.0814567 0.2737124 0.4586646 1.3553839e-38
1.0788589 0.27353722 0.45863456 1.3461642e-38
1.0762609 0.27336204 0.4586044 1.3369451e-38
1.073663 0.27318686 0.45857435 1.3461648e-38
1.0732646 0.27384734 0.46354336 1.3461288e-38
1.0706571 0.27367151 0.46351308 1.3460928e-38
1.0680497 0.2734957 0.46348292 1.3460568e-38
1.0654422 0.27331987 0.46345264 1.3460568e-38
1.0628347 0.27314407 0.46342248 1.3368735e-38
1.0602273 0.27296823 0.4633922 1.3369096e-38
1.0576198 0.27279243 0.46336204 1.3277262e-38
1.0550125 0.2726166 0.46333176 1.3369459e-38
1.0524049 0.27244079 0.4633016 1.3369095e-38
1.0497975 0.27226496 0.46327132 1.3368732e-38
1.04719 0.27208915 0.46324116 1.3276898e-38
1.0445826 0.27191332 0.46321088 1.3460213e-38
1.0419751 0.27173752 0.46318072 1.3643883e-38
1.0393677 0.27156168 0.46315056 1.3552047e-38
1.0367601 0.27138585 0.46312028 1.3460573e-38
1.0366206 0.27220121 0.46908718 1.3369101e-38
1.0340017 0.27202463 0.46905679 1.3276898e-38
1.0313828 0.27184802 0.46902651 1.3276529e-38
1.028764 0.27167144 0.46899611 1.3276892e-38
1.0237229 0.27050677 0.46296924 1.3276538e-38
1.0211155 0.27033094 0.46293896 1.3184345e-38
1.018508 0.27015513 0.4629088 1.3000677e-38
1.0159006 0.2699793 0.46287853 1.2817367e-38
1.0132931 0.26980349 0.46284837 1.3001757e-38
1.0130506 0.27061191 0.46881407 1.3093231e-38
1.0104318 0.2704353 0.46878368 1.3000675e-38
1.0121067 0.27206036 0.47974533 1.2816646e-38
1.0094668 0.27188236 0.47971469 1.2908481e-38
1.0041871 0.27152634 0.47965354 1.281664e-38
0.99925095 0.27036873 0.47362787 1.2724803e-38
0.99662256 0.27019149 0.47359735 1.2724443e-38
1.0971022 0.27217337 0.45896739 1.3645686e-38
1.0922188 0.27116629 0.45393664 1.3645685e-38
1.0896304 0.27099177 0.45390671 1.373716e-38
1.087042 0.27081725 0.45387667 1.3645682e-38
1.0844536 0.2706427 0.45384663 1.3554204e-38
1.0841125 0.27129748 0.45881695 1.3553842e-38
1.0815146 0.27112231 0.45878679 1.3553838e-38
1.0789168 0.27094716 0.45875674 1.346164e-38
1.0763187 0.27077198 0.45872658 1.3461285e-38
1.0737209 0.2705968 0.45869642 1.3461289e-38
1.0733227 0.27124774 0.4636659 1.346057e-38
1.0707152 0.27107191 0.46363574 1.3460569e-38
1.0681078 0.27089611 0.46360546 1.3460563e-38
1.0655003 0.27072027 0.4635753 1.3460556e-38
1.0628929 0.27054447 0.46354502 1.3460566e-38
1.0602853 0.27036864 0.46351486 1.3460933e-38
1.057678 0.27019283 0.46348459 1.3369461e-38
1.0550705 0.270017 0.46345443 1.3369105e-38
1.0524631 0.26984119 0.46342415 1.3460932e-38
1.0498556 0.26966536 0.46339399 1.3369087e-38
1.0472481 0.26948956 0.46336371 1.3368732e-38
1.0446407 0.26931372 0.46333355 1.3552407e-38
1.0420332 0.26913792 0.46330327 1.3643881e-38
1.0394258 0.26896209 0.46327311 1.3552043e-38
1.0368183 0.26878625 0.46324283 1.3459852e-38
1.0342109 0.26861045 0.46321267 1.3460213e-38
1.0316033 0.26843461 0.46318251 1.346021e-38
1.0314412 0.26923704 0.46914965 1.3369089e-38
1.0263885 0.26808298 0.46312207 1.3277614e-38
1.0237811 0.26790717 0.46309179 1.3276897e-38
1.0211736 0.26773134 0.46306163 1.3276182e-38
1.0185661 0.26755553 0.46303135 1.3184707e-38
1.0139686 0.26656774 0.45800406 1.3092875e-38
1.0133512 0.2672039 0.46297091 1.3092878e-38
1.0087727 0.26621738 0.45794386 1.3184709e-38
1.0061748 0.2660422 0.4579137 1.3092511e-38
1.0971601 0.26958331 0.45908958 1.3646402e-38
1.0922765 0.26858571 0.45405835 1.373716e-38
1.0896881 0.26841119 0.45402843 1.3828994e-38
1.0870997 0.26823664 0.45399839 1.364532e-38
1.0845113 0.26806211 0.45396835 1.3462008e-38
1.0819229 0.26788759 0.45393842 1.3553845e-38
1.0815725 0.26853225 0.45890898 1.3553483e-38
1.0789746 0.26835707 0.45887882 1.3553122e-38
1.0763767 0.26818189 0.45884877 1.3461288e-38
1.0737787 0.26800671 0.45881861 1.3460931e-38
1.0733807 0.26864815 0.46378845 1.3369094e-38
1.0707734 0.26847234 0.46375829 1.346057e-38
1.0681658 0.26829651 0.46372801 1.3460209e-38
1.0655584 0.26812068 0.46369785 1.3551683e-38
1.0629508 0.26794487 0.46366769 1.3552406e-38
1.0603435 0.26776904 0.46363741 1.3552769e-38
1.0577359 0.26759323 0.46360725 1.3460935e-38
1.0551286 0.2674174 0.46357697 1.3460579e-38
1.0525211 0.2672416 0.46354681 1.3460932e-38
1.0499136 0.26706576 0.46351653 1.3461285e-38
1.0473062 0.26688996 0.46348637 1.3460931e-38
1.0446987 0.26671413 0.46345609 1.355277e-38
1.0420914 0.26653832 0.46342593 1.3644243e-38
1.0394838 0.26636249 0.46339566 1.3552046e-38
1.0368763 0.26618668 0.4633655 1.3460212e-38
1.0342689 0.26601085 0.46333522 1.3552049e-38
1.0316615 0.26583505 0.46330506 1.3644601e-38
1.0290539 0.26565921 0.46327478 1.3461288e-38
1.0264466 0.26548341 0.46324462 1.3277258e-38
1.023839 0.26530758 0.46321434 1.3276899e-38
1.0212317 0.26513177 0.46318418 1.3276542e-38
1.0186242 0.26495594 0.46315402 1.3276542e-38
1.0140264 0.26397765 0.45812625 1.3276185e-38
1.0114286 0.26380247 0.45809609 1.3275827e-38
1.0088305 0.26362729 0.45806593 1.3184348e-38
1.0062327 0.26345211 0.45803589 1.3184346e-38
1.097218 0.26699319 0.45921177 1.3646043e-38
1.09462 0.26681802 0.45918161 1.3645682e-38
1.0897458 0.26583061 0.45415002 1.3736797e-38
1.0871572 0.26565605 0.4541201 1.3644959e-38
1.084569 0.26548153 0.45409006 1.3553126e-38
1.0842283 0.2661173 0.45906121 1.3553488e-38
1.0816303 0.26594213 0.45903105 1.3645322e-38
1.0790324 0.26576698 0.459001 1.3553126e-38
1.0764346 0.2655918 0.45897084 1.3460932e-38
1.0738366 0.26541662 0.4589408 1.3461289e-38
1.0734389 0.26604855 0.46391112 1.3369812e-38
1.0708314 0.26587275 0.46388084 1.3460929e-38
1.068224 0.26569691 0.46385068 1.3552049e-38
1.0656165 0.26552108 0.4638204 1.355205e-38
1.063009 0.26534528 0.46379024 1.355241e-38
1.0604016 0.26516944 0.46375996 1.3552769e-38
1.0577941 0.26499364 0.4637298 1.3460933e-38
1.0551867 0.2648178 0.46369964 1.3460933e-38
1.0525792 0.264642 0.46366936 1.3369096e-38
1.0499718 0.26446617 0.4636392 1.3461289e-38
1.0473642 0.26429036 0.46360892 1.3460935e-38
1.0447569 0.26411453 0.46357876 1.3552774e-38
1.0421494 0.26393872 0.46354848 1.3644606e-38
1.039542 0.26376289 0.46351832 1.3552406e-38
1.0369344 0.26358709 0.46348804 1.3460572e-38
1.034327 0.26341125 0.46345788 1.3460931e-38
1.0317196 0.26323545 0.4634276 1.3461291e-38
1.0291121 0.26305962 0.46339744 1.3369098e-38
1.0265048 0.26288381 0.46336716 1.3185068e-38
1.0238972 0.26270798 0.463337 1.3276902e-38
1.0212898 0.26253217 0.46330673 1.3368379e-38
1.0186822 0.26235634 0.46327657 1.3368019e-38
1.0160749 0.26218051 0.46324629 1.3459853e-38
1.0134674 0.2620047 0.46321613 1.3368016e-38
1.01086 0.26182887 0.46318597 1.3276181e-38
1.0082524 0.26165307 0.46315569 1.3184345e-38
1.0946779 0.26422793 0.4593038 1.3646043e-38
1.0898033 0.26324999 0.45427173 1.3645683e-38
1.0872149 0.26307547 0.45424181 1.3644964e-38
1.0846266 0.26290095 0.45421177 1.3553488e-38
1.0842862 0.26352721 0.45918328 1.3644966e-38
1.0816882 0.26335204 0.45915323 1.3645323e-38
1.0790904 0.26317689 0.45912308 1.3553128e-38
1.0764924 0.26300171 0.45909303 1.3460933e-38
1.0738945 0.26282653 0.45906287 1.3460933e-38
1.0734969 0.26344895 0.46403366 1.3369099e-38
1.0708895 0.26327315 0.4640035 1.3460936e-38
1.0682821 0.26309732 0.46397322 1.3552411e-38
1.0656745 0.26292151 0.46394306 1.3552053e-38
1.0630672 0.26274568 0.46391279 1.355241e-38
1.0604596 0.26256987 0.46388263 1.3552409e-38
1.0578523 0.26239404 0.46385235 1.3460932e-38
1.0552448 0.26221824 0.46382219 1.3369096e-38
1.0526373 0.2620424 0.46379191 1.3277618e-38
1.0500299 0.2618666 0.46376175 1.3369452e-38
1.0499485 0.26264021 0.46973139 1.3461291e-38
1.0448149 0.26151496 0.46370131 1.3552772e-38
1.0422075 0.26133913 0.46367115 1.3644604e-38
1.0396001 0.26116332 0.46364087 1.3552766e-38
1.0369925 0.26098749 0.46361071 1.3460931e-38
1.0343852 0.26081169 0.46358043 1.3369455e-38
1.0317776 0.26063585 0.46355027 1.3277622e-38
1.0291703 0.26046005 0.46351999 1.318543e-38
1.0265628 0.26028422 0.46348983 1.3093593e-38
1.0239553 0.26010841 0.46345955 1.3276902e-38
1.0237596 0.2608743 0.46942788 1.3368379e-38
1.0187404 0.25975677 0.46339911 1.3459497e-38
1.016133 0.25958094 0.46336895 1.3551687e-38
1.0135255 0.25940511 0.46333867 1.3459489e-38
1.010918 0.2592293 0.46330851 1.327582e-38
1.0083106 0.25905347 0.46327823 1.3275823e-38
1.0973337 0.26181301 0.45945603 1.3555294e-38
1.0947357 0.26163784 0.45942587 1.3554928e-38
1.089861 0.26066941 0.45439345 1.3646405e-38
1.0872726 0.26049489 0.45436341 1.3646046e-38
1.0846843 0.26032034 0.45433348 1.3645686e-38
1.0820959 0.26014581 0.45430344 1.3645683e-38
1.0795075 0.25997126 0.45427352 1.373716e-38
1.0791483 0.2605868 0.45924526 1.3644964e-38
1.0765502 0.26041162 0.4592151 1.3552772e-38
1.0739524 0.26023644 0.45918506 1.3552413e-38
1.0713544 0.26006126 0.4591549 1.3643894e-38
1.0709476 0.26067355 0.46412605 1.3644255e-38
1.0683401 0.26049775 0.46409589 1.3644253e-38
1.0657327 0.26032192 0.46406561 1.3552413e-38
1.0631251 0.26014611 0.46403545 1.3552769e-38
1.0605178 0.25997028 0.46400517 1.3552766e-38
1.0579102 0.25979447 0.46397501 1.3553125e-38
1.0578635 0.26055899 0.46994561 1.3461288e-38
1.0526954 0.25944284 0.46391457 1.3369451e-38
1.0500879 0.259267 0.46388429 1.3461285e-38
1.0500067 0.2600292 0.46985453 1.3461289e-38
1.0473878 0.25985262 0.46982425 1.3552769e-38
1.044769 0.25967604 0.46979386 1.3552767e-38
1.0396581 0.25856373 0.46376342 1.3461289e-38
1.0395312 0.25932285 0.46973318 1.3461291e-38
1.0344431 0.25821209 0.4637031 1.3369457e-38
1.0318358 0.25803626 0.46367282 1.3369459e-38
1.0292282 0.25786045 0.46364266 1.3277627e-38
1.0266209 0.25768462 0.46361238 1.3277265e-38
1.0240133 0.25750881 0.46358222 1.3368738e-38
1.0238179 0.25826332 0.46955103 1.336802e-38
1.0187985 0.25715718 0.46352178 1.3459856e-38
1.016191 0.25698134 0.4634915 1.3460209e-38
1.0135837 0.25680554 0.46346134 1.3368008e-38
1.0109761 0.25662971 0.46343106 1.3275819e-38
1.0083686 0.2564539 0.4634009 1.3275823e-38
1.0976839 0.25861242 0.45460516 1.3831163e-38
1.0973916 0.25922292 0.4595781 1.3555293e-38
1.0947936 0.25904775 0.45954806 1.3554928e-38
1.0899186 0.25808883 0.45451516 1.355493e-38
1.0873303 0.2579143 0.45448512 1.3646768e-38
1.0847418 0.25773975 0.4544552 1.3646404e-38
1.0821536 0.25756523 0.45442516 1.3738235e-38
1.079565 0.25739068 0.45439512 1.3737517e-38
1.0769768 0.25721616 0.45436519 1.37368e-38
1.0743883 0.25704163 0.45433515 1.3644964e-38
1.0740103 0.25764632 0.45930725 1.3736082e-38
1.0736132 0.25824979 0.46427888 1.3827921e-38
1.0710057 0.25807399 0.4642486 1.3736087e-38
1.0683982 0.25789815 0.46421844 1.3644609e-38
1.0657908 0.25772232 0.46418828 1.3644607e-38
1.0631833 0.25754651 0.464158 1.355277e-38
1.0605758 0.25737068 0.46412784 1.3552769e-38
1.0605407 0.25812456 0.47009903 1.3552766e-38
1.0579219 0.25794798 0.47006875 1.3553123e-38
1.0527534 0.25684324 0.46403712 1.3461284e-38
1.0501461 0.25666741 0.46400696 1.3461281e-38
1.050065 0.25741822 0.46997768 1.3460928e-38
1.0474463 0.25724161 0.4699474 1.3460933e-38
1.0448275 0.25706503 0.469917 1.3460933e-38
1.0397162 0.25596413 0.46388608 1.3461291e-38
1.0371087 0.25578833 0.4638558 1.3369455e-38
1.0345013 0.25561249 0.46382564 1.3369455e-38
1.0318938 0.25543669 0.46379536 1.3369455e-38
1.0292864 0.25526085 0.4637652 1.3461292e-38
1.026679 0.25508505 0.46373492 1.3460932e-38
1.0240715 0.25490922 0.46370476 1.3460573e-38
1.0238762 0.25565231 0.46967417 1.3368383e-38
1.0188565 0.25455758 0.46364433 1.3368027e-38
1.0162492 0.25438175 0.46361417 1.3368738e-38
1.0136417 0.25420594 0.46358389 1.3368732e-38
1.0110343 0.25403011 0.46355373 1.3276181e-38
1.0084267 0.2538543 0.46352345 1.336766e-38
1.0058193 0.25367847 0.46349329 1.3367657e-38
1.1000473 0.25680801 0.45973045 1.3923353e-38
1.0951531 0.25585732 0.45469683 1.3646766e-38
1.0948515 0.25645766 0.45967025 1.3646762e-38
1.0899763 0.25550824 0.45463687 1.3646408e-38
1.087388 0.25533372 0.45460683 1.3646771e-38
1.0870577 0.25593212 0.45957989 1.3646764e-38
1.0822113 0.25498465 0.45454687 1.3646398e-38
1.0796227 0.25481009 0.45451683 1.3646398e-38
1.0770345 0.25463557 0.45448691 1.364568e-38
1.074446 0.25446105 0.45445687 1.3645322e-38
1.0740681 0.25505626 0.45942932 1.3644963e-38
1.0736711 0.25565019 0.46440142 1.37368e-38
1.0710638 0.25547439 0.46437126 1.37368e-38
1.0684563 0.25529855 0.46434098 1.3645325e-38
1.0658488 0.25512275 0.46431082 1.355313e-38
1.0632414 0.25494692 0.46428055 1.355313e-38
1.0606339 0.25477111 0.46425039 1.355277e-38
1.0580264 0.25459528 0.46422023 1.3644244e-38
1.055419 0.25441948 0.46418995 1.3552763e-38
1.0528116 0.25424364 0.46415979 1.3552758e-38
1.050204 0.25406784 0.46412951 1.3460916e-38
1.0475967 0.253892 0.46409935 1.3460566e-38
1.0449891 0.25371617 0.46406907 1.355241e-38
1.0423818 0.25354037 0.46403891 1.3644246e-38
1.0397743 0.25336453 0.46400863 1.3460933e-38
1.0371668 0.25318873 0.46397847 1.3369096e-38
1.0345594 0.2530129 0.46394819 1.3369095e-38
1.0319519 0.25283709 0.46391803 1.3369094e-38
1.0293444 0.25266126 0.46388775 1.3460926e-38
1.026737 0.25248545 0.46385759 1.3460929e-38
1.0265534 0.25321791 0.46982771 1.3460573e-38
1.0239346 0.25304133 0.46979731 1.3460221e-38
1.0189147 0.25195798 0.46376687 1.3460587e-38
1.0163071 0.25178218 0.46373671 1.3460939e-38
1.0136998 0.25160635 0.46370655 1.3368738e-38
1.0110922 0.25143054 0.46367627 1.3276543e-38
1.0084848 0.25125471 0.46364611 1.3276183e-38
1.0058774 0.2510789 0.46361583 1.3276179e-38
1.1001053 0.25421792 0.45985252 1.3923715e-38
1.0952108 0.25327674 0.45481855 1.3738603e-38
1.0949094 0.25386757 0.45979232 1.3738239e-38
1.090034 0.25292766 0.45475858 1.3738242e-38
1.0874456 0.25275311 0.45472854 1.3738245e-38
1.0871155 0.25334203 0.45970207 1.3646764e-38
1.0822688 0.25240406 0.45466858 1.3646401e-38
1.0796804 0.25222951 0.45463854 1.3554564e-38
1.0770921 0.25205499 0.45460862 1.3554205e-38
1.0745037 0.25188044 0.45457858 1.3553846e-38
1.0719153 0.25170591 0.45454854 1.3645682e-38
1.0737293 0.2530506 0.46452409 1.3645323e-38
1.0711219 0.25287479 0.46449381 1.3644966e-38
1.0685143 0.25269896 0.46446365 1.3645325e-38
1.065907 0.25252315 0.46443337 1.355313e-38
1.0632994 0.25234732 0.46440321 1.3461295e-38
1.0606921 0.25217152 0.46437293 1.3552773e-38
1.0580845 0.25199568 0.46434277 1.3644606e-38
1.0554771 0.25181988 0.46431249 1.3644244e-38
1.0528697 0.25164405 0.46428233 1.3552404e-38
1.0502622 0.25146824 0.46425205 1.3460565e-38
1.0501819 0.25219622 0.47022396 1.3368733e-38
1.0450473 0.25111657 0.46419173 1.3552409e-38
1.044944 0.25184304 0.47016329 1.373608e-38
1.0423251 0.25166646 0.47013289 1.3552409e-38
1.0372249 0.25058913 0.46410102 1.3369096e-38
1.0346174 0.2504133 0.46407086 1.3368739e-38
1.0320101 0.25023749 0.46404058 1.3369095e-38
1.0294025 0.25006166 0.46401042 1.3460928e-38
1.0267951 0.24988586 0.46398014 1.3460929e-38
1.0241876 0.24971002 0.46394998 1.3552767e-38
1.023993 0.25043032 0.46992046 1.3552413e-38
1.0189728 0.24935839 0.46388954 1.3552417e-38
1.0163653 0.24918258 0.46385926 1.3460576e-38
1.0137579 0.24900675 0.4638291 1.3368736e-38
1.0091779 0.24808675 0.45879883 1.3276541e-38
1.0065799 0.24791157 0.45876878 1.3276182e-38
1.097857 0.25087067 0.45497018 1.4015193e-38
1.0952685 0.25069612 0.45494026 1.4013392e-38
1.0949672 0.25127748 0.45991451 1.3921909e-38
1.0900917 0.25034708 0.4548803 1.3830075e-38
1.0897714 0.25092712 0.4598543 1.3738599e-38
1.0871735 0.25075194 0.45982414 1.3738598e-38
1.0845755 0.25057676 0.4597941 1.3646402e-38
1.0797381 0.24964891 0.45476025 1.3646043e-38
1.0771497 0.24947439 0.45473021 1.3646042e-38
1.0745614 0.24929985 0.45470029 1.3646042e-38
1.0741839 0.24987608 0.45967358 1.3645683e-38
1.0737873 0.250451 0.46464664 1.3645325e-38
1.0711799 0.25027519 0.46461648 1.3645325e-38
1.0685725 0.25009936 0.4645862 1.3645683e-38
1.0659649 0.24992353 0.46455604 1.355313e-38
1.0633576 0.24974772 0.46452576 1.3552773e-38
1.06075 0.24957189 0.4644956 1.3553133e-38
1.0581427 0.24939609 0.46446532 1.3644609e-38
1.0555352 0.24922025 0.46443516 1.355277e-38
1.0529277 0.24904445 0.46440488 1.355241e-38
1.0503203 0.24886861 0.46437472 1.3460931e-38
1.0502402 0.24958524 0.47034711 1.3369095e-38
1.0476213 0.24940866 0.47031671 1.3552766e-38
1.0450025 0.24923205 0.47028643 1.3644601e-38
1.0423834 0.24905547 0.47025603 1.3552765e-38
1.0397646 0.2488789 0.47022563 1.3460932e-38
1.0371459 0.24870229 0.47019535 1.3460576e-38
1.0345268 0.24852571 0.47016495 1.3460932e-38
1.031908 0.2483491 0.47013468 1.3369094e-38
1.029289 0.24817252 0.47010428 1.3369454e-38
1.0266702 0.24799594 0.470074 1.3369095e-38
1.0240513 0.24781933 0.4700436 1.3460933e-38
1.0190308 0.24675879 0.46401209 1.3460576e-38
1.0164233 0.24658296 0.46398193 1.3460573e-38
1.0138159 0.24640715 0.46395165 1.3368733e-38
1.0112084 0.24623132 0.46392149 1.3276539e-38
1.008601 0.24605551 0.46389121 1.3184704e-38
1.0059936 0.24587968 0.46386105 1.3092867e-38
1.0979146 0.24829008 0.45509189 1.4107743e-38
1.0953262 0.24811552 0.45506197 1.4198138e-38
1.0927377 0.247941 0.45503193 1.4013746e-38
1.0901494 0.24776646 0.45500189 1.3830433e-38
1.0898292 0.24833703 0.45997638 1.3830433e-38
1.0872314 0.24816185 0.45994633 1.3738595e-38
1.0846334 0.24798667 0.45991617 1.3738233e-38
1.0820355 0.2478115 0.45988613 1.3646402e-38
1.0772073 0.24689379 0.45485193 1.3646405e-38
1.0746191 0.24671926 0.454822 1.3646045e-38
1.0720305 0.24654473 0.45479196 1.3645683e-38
1.0738454 0.2478514 0.46476918 1.3553846e-38
1.071238 0.2476756 0.46473902 1.364568e-38
1.0686306 0.24749976 0.46470886 1.3645679e-38
1.0660231 0.24732396 0.46467859 1.364496e-38
1.0634156 0.24714813 0.46464843 1.3553488e-38
1.0608082 0.24697232 0.46461815 1.3553493e-38
1.0582007 0.24679649 0.46458799 1.3553132e-38
1.0555933 0.24662068 0.46455771 1.355277e-38
1.0529859 0.24644485 0.46452755 1.3553128e-38
1.0529175 0.24715084 0.47050053 1.3461292e-38
1.0502985 0.24697423 0.47047025 1.3369454e-38
1.0476797 0.24679765 0.47043985 1.3461285e-38
1.0450609 0.24662107 0.47040957 1.3553122e-38
1.0424418 0.24644446 0.47037917 1.3553125e-38
1.0398231 0.24626788 0.47034878 1.3460932e-38
1.0372041 0.24609131 0.4703185 1.3552053e-38
1.0345852 0.2459147 0.4702881 1.3552767e-38
1.0319663 0.24573812 0.47025782 1.3369094e-38
1.0293474 0.24556151 0.47022742 1.3185424e-38
1.0267285 0.24538493 0.47019702 1.3276901e-38
1.0241096 0.24520835 0.47016674 1.3369095e-38
1.0214908 0.24503174 0.47013634 1.3368738e-38
1.0164814 0.24398339 0.46410447 1.3368735e-38
1.0138741 0.24380755 0.46407431 1.3369091e-38
1.0112665 0.24363175 0.46404403 1.3276897e-38
1.0086591 0.24345592 0.46401387 1.3184704e-38
1.0060517 0.24328011 0.4639836 1.3001031e-38
1.1005607 0.24588402 0.45524365 1.383185e-38
1.0979723 0.24570949 0.45521361 1.3923709e-38
1.0953839 0.24553494 0.45518368 1.4014107e-38
1.0927954 0.24536042 0.45515364 1.3922269e-38
1.0902071 0.24518588 0.4551236 1.3830432e-38
1.0898871 0.24574697 0.46009856 1.383043e-38
1.0872892 0.24557179 0.4600684 1.3830428e-38
1.0846913 0.24539661 0.46003836 1.3738588e-38
1.0820934 0.24522144 0.4600082 1.3738238e-38
1.077265 0.24431321 0.45497364 1.3738245e-38
1.0768976 0.24487108 0.459948 1.3829717e-38
1.0742996 0.2446959 0.45991796 1.3646042e-38
1.0739036 0.24525183 0.46489185 1.3554204e-38
1.0712961 0.245076 0.46486157 1.3646036e-38
1.0686886 0.2449002 0.46483141 1.3646034e-38
1.0660812 0.24472436 0.46480113 1.3645671e-38
1.0634737 0.24454856 0.46477097 1.3553844e-38
1.0608662 0.24437273 0.46474081 1.3645688e-38
1.0582588 0.24419692 0.46471053 1.3737161e-38
1.0556514 0.24402109 0.46468037 1.3645322e-38
1.0530438 0.24384528 0.46465009 1.3462011e-38
1.0504365 0.24366945 0.46461993 1.3370177e-38
1.0503569 0.24436325 0.47059339 1.3278334e-38
1.047738 0.24418667 0.47056299 1.3369445e-38
1.045119 0.24401006 0.4705326 1.3460926e-38
1.0425001 0.24383348 0.47050232 1.3460931e-38
1.0398812 0.2436569 0.47047192 1.3460932e-38
1.0393214 0.24420178 0.47544414 1.3460933e-38
1.0346434 0.24330372 0.47041124 1.3552767e-38
1.0320246 0.24312711 0.47038084 1.3369094e-38
1.0294057 0.24295053 0.47035056 1.327726e-38
1.0288076 0.24349284 0.47532219 1.3369095e-38
1.024168 0.24259734 0.47028989 1.3460929e-38
1.021549 0.24242076 0.47025949 1.3552404e-38
1.0189302 0.24224415 0.47022921 1.3644239e-38
1.0163113 0.24206758 0.47019881 1.35524e-38
1.0113246 0.24103215 0.4641667 1.3368732e-38
1.0087171 0.24085635 0.46413642 1.3184704e-38
1.1006184 0.24330342 0.45536536 1.373571e-38
1.0980299 0.24312888 0.45533532 1.3740398e-38
1.0954415 0.24295436 0.45530528 1.3739319e-38
1.0928531 0.24277982 0.45527536 1.3738958e-38
1.0902647 0.24260528 0.45524532 1.3738598e-38
1.0899451 0.24315688 0.46022075 1.3830432e-38
1.087347 0.2429817 0.46019059 1.3830429e-38
1.0847492 0.24280652 0.46016043 1.3830426e-38
1.0821512 0.24263135 0.46013039 1.3830072e-38
1.0795534 0.24245617 0.46010023 1.3921554e-38
1.0769554 0.24228099 0.46007019 1.3921194e-38
1.0743575 0.24210581 0.46004003 1.373752e-38
1.0739616 0.24265224 0.4650144 1.3553848e-38
1.0713542 0.24247643 0.46498424 1.3646041e-38
1.0687468 0.2423006 0.46495396 1.3646036e-38
1.0661392 0.24212477 0.4649238 1.3646034e-38
1.0635319 0.24194896 0.46489352 1.3554204e-38
1.0609243 0.24177313 0.46486336 1.3737879e-38
1.0583169 0.24159732 0.46483308 1.3921188e-38
1.0557095 0.24142149 0.46480292 1.3645678e-38
