# .PCD v0.7 - Point Cloud Data file format
VERSION 0.7
FIELDS x y z rgb
SIZE 4 4 4 4
TYPE F F F F
COUNT 1 1 1 1
WIDTH 965
HEIGHT 1
VIEWPOINT 0 0 0 1 0 0 0
POINTS 965
DATA ascii
0.46989545 -0.014635019 0.057673275 1.1696575e-38
0.46808013 -0.014570329 0.054639935 1.244207e-38
0.46625987 -0.014693063 0.054618835 1.3180703e-38
0.46445435 -0.014690083 0.052589715 1.3088512e-38
0.46259153 -0.015127517 0.057588637 1.2997035e-38
0.46076554 -0.015250646 0.057567477 1.4103007e-38
0.45893958 -0.015373766 0.057546318 1.5205754e-38
0.45711359 -0.015496895 0.057525158 1.5210422e-38
0.45528761 -0.015620016 0.057503998 1.5207196e-38
0.45346162 -0.015743144 0.057482839 1.483878e-38
0.45157352 -0.016057581 0.060473204 1.4377828e-38
0.44974181 -0.016181096 0.060451984 1.4565822e-38
0.44791013 -0.016304605 0.060430765 1.4753431e-38
0.44602558 -0.016556405 0.06241709 1.484454e-38
0.44410506 -0.016873017 0.065407097 1.4937084e-38
0.44226384 -0.016997166 0.065385759 1.4198085e-38
0.44022971 -0.017508533 0.071386814 1.3549097e-38
0.43830895 -0.017762791 0.073372722 1.1333884e-38
0.43634462 -0.018082347 0.076362252 9.1233765e-39
0.43436882 -0.018402662 0.079351604 8.7556757e-39
0.4325009 -0.018528622 0.079329967 8.3876709e-39
0.43050796 -0.018850107 0.0823192 1.1710662e-38
0.42863435 -0.018976446 0.082297504 1.4943597e-38
0.47176212 -0.01633238 0.057780266 1.1051171e-38
0.46993613 -0.016455509 0.057759106 1.1332822e-38
0.46812069 -0.016385119 0.054725468 1.2353821e-38
0.46630043 -0.016507853 0.054704428 1.3364008e-38
0.46448016 -0.016630594 0.054683328 1.299523e-38
0.46263221 -0.016948007 0.057674468 1.263042e-38
0.46080622 -0.017071135 0.057653308 1.4840952e-38
0.45898026 -0.017194256 0.057632148 1.7053271e-38
0.45715427 -0.017317381 0.057610989 1.7153376e-38
0.45532829 -0.017440509 0.057589829 1.7146558e-38
0.4535023 -0.017563637 0.057568669 1.6593032e-38
0.45161432 -0.017883759 0.060559332 1.5948036e-38
0.44978264 -0.018007275 0.060538113 1.6226418e-38
0.44795093 -0.018130776 0.060516894 1.6502641e-38
0.44606647 -0.018386375 0.062503397 1.687321e-38
0.44414607 -0.018708702 0.065493703 1.7146558e-38
0.44230485 -0.018832844 0.065472364 1.6136723e-38
0.44027099 -0.019355606 0.071473956 1.5021715e-38
0.43835032 -0.019613665 0.073459983 1.197637e-38
0.43638611 -0.019938927 0.076449811 8.9415019e-39
0.43452391 -0.020064484 0.076428235 8.7560457e-39
0.43242335 -0.020591754 0.082428992 8.5752894e-39
0.43054971 -0.020718087 0.082407296 1.1617028e-38
0.42867607 -0.020844426 0.0823856 1.4571584e-38
0.47180176 -0.017954398 0.054853261 1.0958622e-38
0.46998149 -0.018077139 0.05483216 1.1239553e-38
0.46816817 -0.018067058 0.052802622 1.2442783e-38
0.46635172 -0.018189546 0.052781582 1.3548391e-38
0.46453527 -0.018312026 0.052760482 1.3179248e-38
0.46267289 -0.018768471 0.057760358 1.2718321e-38
0.4608469 -0.018891599 0.057739198 1.5027523e-38
0.45902094 -0.019014727 0.057718039 1.7338868e-38
0.45719495 -0.019137856 0.057696879 1.7154152e-38
0.45536897 -0.019260969 0.057675719 1.7061235e-38
0.45354298 -0.019384097 0.05765456 1.6596311e-38
0.45165512 -0.019709926 0.060645461 1.6135691e-38
0.44982344 -0.019833442 0.060624242 1.6227518e-38
0.44799173 -0.019956943 0.060603023 1.6412271e-38
0.44610736 -0.020216357 0.062589705 1.6781054e-38
0.4441871 -0.020544361 0.065580249 1.7149113e-38
0.44234586 -0.020668518 0.06555891 1.6503752e-38
0.44031227 -0.02120268 0.071561038 1.5761083e-38
0.43839169 -0.021464545 0.073547304 1.2439846e-38
0.43642759 -0.021795508 0.076537371 9.1240995e-39
0.43445206 -0.022127237 0.079527259 9.0319207e-39
0.43246508 -0.022459742 0.082517087 8.9383294e-39
0.43059146 -0.022586081 0.082495391 1.1616305e-38
0.42871782 -0.022712413 0.082473695 1.4389701e-38
0.42388245 -0.024560463 0.1055159 1.6595932e-38
0.42186657 -0.024828751 0.10750121 1.6227863e-38
0.41994527 -0.024958309 0.10747892 1.5859442e-38
0.47550803 -0.019930463 0.0610075 9.3031014e-39
0.47367632 -0.020053964 0.06098628 1.0680614e-38
0.47184348 -0.019973319 0.057951987 1.0957177e-38
0.47001749 -0.020096447 0.057930827 1.1147715e-38
0.46820864 -0.019878041 0.052888036 1.2444943e-38
0.46639219 -0.020000529 0.052866936 1.3732065e-38
0.46457574 -0.020123009 0.052845895 1.3271803e-38
0.46274102 -0.020382877 0.054833353 1.281554e-38
0.46092075 -0.020505618 0.054812312 1.5211557e-38
0.45906162 -0.020835202 0.057803869 1.7518593e-38
0.45723563 -0.02095833 0.05778271 1.7245985e-38
0.45540965 -0.021081444 0.05776155 1.6967247e-38
0.45358366 -0.021204572 0.05774039 1.6687073e-38
0.45175767 -0.0213277 0.057719231 1.6319724e-38
0.44986424 -0.021659609 0.060710311 1.6319358e-38
0.44803253 -0.021783125 0.060689092 1.6228243e-38
0.44614825 -0.022046324 0.062676013 1.6689218e-38
0.44431272 -0.022170093 0.062654734 1.7149472e-38
0.4423869 -0.022504177 0.065645456 1.6876478e-38
0.44035354 -0.023049753 0.07164818 1.6495773e-38
0.43843305 -0.023315419 0.073634565 1.2897956e-38
0.43646908 -0.023652073 0.07662493 9.3110047e-39
0.43449366 -0.02398951 0.079615116 9.3088663e-39
0.43262574 -0.024115469 0.07959348 9.2181421e-39
0.43063319 -0.024454046 0.082583487 1.1703115e-38
0.42867264 -0.024722401 0.084569573 1.4109531e-38
0.42597872 -0.026129443 0.10261685 1.5405669e-38
0.42406696 -0.026258346 0.10259467 1.6596653e-38
0.42215523 -0.026387256 0.1025725 1.6319344e-38
0.42009023 -0.026730742 0.10556167 1.6043473e-38
0.41817278 -0.026860032 0.10553938 1.5767602e-38
0.47554883 -0.02175663 0.061093628 8.288253e-39
0.47371712 -0.021880131 0.061072409 9.2116036e-39
0.47188544 -0.022003647 0.06105119 1.022356e-38
0.47005817 -0.021916937 0.058016658 1.1327079e-38
0.46824235 -0.021829437 0.054982245 1.2533555e-38
0.46642208 -0.021952171 0.054961145 1.3733863e-38
0.46460181 -0.022074912 0.054940045 1.3642375e-38
0.46275425 -0.022409435 0.057932019 1.3642062e-38
0.46092826 -0.022532564 0.05791086 1.5857997e-38
0.45910227 -0.022655677 0.0578897 1.8073195e-38
0.45727631 -0.022778805 0.05786854 1.7704442e-38
0.45540014 -0.023115244 0.060860157 1.7333513e-38
0.45362434 -0.023025062 0.057826221 1.6044944e-38
0.45173675 -0.02336226 0.060817659 1.485036e-38
0.44990504 -0.023485776 0.06079644 1.4755648e-38
0.44807336 -0.023609292 0.06077522 1.466489e-38
0.44618914 -0.023876306 0.06276232 1.4663455e-38
0.44435361 -0.024000075 0.062741041 1.4759957e-38
0.4424279 -0.024339866 0.065732062 1.5033312e-38
0.44039482 -0.024896827 0.071735263 1.5304068e-38
0.43847439 -0.025166299 0.073721826 1.2719314e-38
0.43651056 -0.025508653 0.076712489 1.013753e-38
0.43453526 -0.025851797 0.079702914 9.9538714e-39
0.43246937 -0.026340988 0.084701359 9.7687963e-39
0.43067494 -0.026322041 0.082671583 1.1799253e-38
0.42871448 -0.026594181 0.084657848 1.3836893e-38
0.42615727 -0.027816322 0.099694908 1.5310965e-38
0.42410955 -0.028164338 0.10268456 1.6779968e-38
0.42219782 -0.028293248 0.10266238 1.6503737e-38
0.42043915 -0.028201889 0.099628627 1.6227504e-38
0.41853315 -0.028330427 0.099606574 1.5859078e-38
0.47745228 -0.023816641 0.066224039 6.998596e-39
0.47558963 -0.023582812 0.061179757 7.364859e-39
0.47375795 -0.023706313 0.061158538 7.6453667e-39
0.47192624 -0.023829829 0.061137319 9.5814245e-39
0.47009885 -0.023737397 0.058102548 1.1423211e-38
0.46827286 -0.023860525 0.058081388 1.2627891e-38
0.46644688 -0.023983639 0.058060229 1.3734226e-38
0.46462092 -0.024106767 0.058039069 1.4104801e-38
0.46279493 -0.024229895 0.05801791 1.4382503e-38
0.46096894 -0.024353024 0.05799675 1.6505165e-38
0.45914295 -0.024476137 0.05797559 1.8532025e-38
0.45727265 -0.02481791 0.060967505 1.807287e-38
0.45544094 -0.024941426 0.060946286 1.7608642e-38
0.45366502 -0.024845522 0.057912111 1.549245e-38
0.45177755 -0.025188442 0.060903788 1.3279425e-38
0.44994587 -0.025311958 0.060882568 1.3187583e-38
0.44811416 -0.025435474 0.060861349 1.3090364e-38
0.44623002 -0.025706287 0.062848628 1.2723737e-38
0.44439453 -0.025830057 0.062827349 1.2267442e-38
0.44246891 -0.02617554 0.065818608 1.3192985e-38
0.44043609 -0.026743915 0.071822345 1.4014414e-38
0.43851575 -0.02701718 0.073809147 1.244525e-38
0.43655205 -0.027365234 0.076800048 1.0877603e-38
0.4345769 -0.027714055 0.079790771 1.0600316e-38
0.43251118 -0.028212775 0.084789574 1.0324113e-38
0.43063375 -0.028339375 0.084767818 1.1888566e-38
0.4287563 -0.028465968 0.084746063 1.34656e-38
0.42687887 -0.02859256 0.084724307 1.5220925e-38
0.4240106 -0.030295525 0.10578638 1.6872523e-38
0.42209315 -0.030424815 0.10576421 1.6596294e-38
0.42017567 -0.030554112 0.10574192 1.6319704e-38
0.41857558 -0.030230712 0.0996961 1.6042396e-38
0.47749329 -0.025652301 0.066310585 5.896912e-39
0.4756391 -0.025555965 0.063275218 6.1699045e-39
0.47380358 -0.025679734 0.063253939 6.5354388e-39
0.47196704 -0.025656011 0.061223388 9.0261025e-39
0.47013536 -0.025779527 0.061202168 1.1513246e-38
0.46831354 -0.025681 0.058167219 1.2165831e-38
0.46648756 -0.025804128 0.05814606 1.2909504e-38
0.4646616 -0.025927257 0.0581249 1.3644566e-38
0.46283561 -0.02605037 0.05810374 1.4380367e-38
0.46100962 -0.026173498 0.058082581 1.659809e-38
0.45918363 -0.026296627 0.058061421 1.8813284e-38
0.45735767 -0.026419755 0.058040261 1.7888491e-38
0.45553169 -0.026542868 0.058019102 1.7056176e-38
0.4537057 -0.026665997 0.057997942 1.483987e-38
0.45181835 -0.027014624 0.060989916 1.271007e-38
0.44998667 -0.02713814 0.060968697 1.2068651e-38
0.44815496 -0.027261656 0.060947478 1.1417905e-38
0.44627091 -0.027536254 0.062934875 1.1426866e-38
0.44443542 -0.027660023 0.062913656 1.1515139e-38
0.44259989 -0.027783792 0.062892377 1.2816286e-38
0.44057304 -0.028363179 0.068896651 1.4105162e-38
0.43855712 -0.028868061 0.073896408 1.2353063e-38
0.43659353 -0.029221814 0.076887608 1.0602104e-38
0.43450567 -0.029805321 0.082891166 1.0232982e-38
0.43255302 -0.030084562 0.084877849 9.9567693e-39
0.43067557 -0.030211162 0.084856093 1.1431169e-38
0.42879814 -0.030337755 0.084834337 1.2915657e-38
0.42664927 -0.030925374 0.090837181 1.4941831e-38
0.42419475 -0.031976324 0.10286433 1.705548e-38
0.42228299 -0.032105226 0.10284215 1.6688133e-38
0.42037123 -0.032234136 0.10281998 1.6412261e-38
0.47940007 -0.027589243 0.069432974 6.2664035e-39
0.47753432 -0.02748799 0.06639713 4.7023148e-39
0.47567999 -0.027385946 0.063361526 5.0660541e-39
0.47384447 -0.027509715 0.063340247 5.3426298e-39
0.47200897 -0.027633484 0.063318968 8.4743567e-39
0.47017616 -0.027605694 0.061288297 1.15118e-38
0.46834445 -0.027729195 0.061267078 1.1795972e-38
0.46652824 -0.027624588 0.05823189 1.2078316e-38
0.46470228 -0.027747717 0.058210731 1.3275066e-38
0.46287629 -0.027870845 0.058189571 1.4383233e-38
0.4610503 -0.027993973 0.058168411 1.669387e-38
0.45922431 -0.028117087 0.058147252 1.8991928e-38
0.45739836 -0.028240215 0.058126092 1.7703021e-38
0.45557237 -0.028363343 0.058104932 1.6410468e-38
0.45374638 -0.028486472 0.058083773 1.4284221e-38
0.45192039 -0.0286096 0.058062613 1.2074409e-38
0.45002747 -0.028964307 0.061054826 1.0866894e-38
0.44819576 -0.029087823 0.061033607 9.6794902e-39
0.44636407 -0.029211324 0.061012387 1.023409e-38
0.44447631 -0.02948999 0.062999904 1.0696868e-38
0.44264078 -0.029613759 0.062978685 1.245216e-38
0.44061419 -0.030204561 0.068983495 1.4102645e-38
0.43859845 -0.030718941 0.073983729 1.2167243e-38
0.43663502 -0.031078395 0.076975167 1.023403e-38
0.43454742 -0.031673301 0.082979262 9.9567259e-39
0.43259484 -0.031956341 0.084966123 9.5876112e-39
0.43071741 -0.032082941 0.084944367 1.0963014e-38
0.42883995 -0.032209534 0.084922612 1.2266346e-38
0.42682695 -0.03257234 0.087913394 1.4758878e-38
0.42437863 -0.033645716 0.099941671 1.714767e-38
0.42232558 -0.034011211 0.10293204 1.6779962e-38
0.42041382 -0.034140121 0.10290986 1.6412256e-38
0.47944123 -0.029430617 0.069519818 6.6337399e-39
0.47757533 -0.029323664 0.066483736 5.6206516e-39
0.47572088 -0.029215928 0.063447833 5.8007058e-39
0.47388536 -0.029339697 0.063426554 5.9786385e-39
0.47204986 -0.029463466 0.063405275 8.6562172e-39
0.47021696 -0.029431876 0.061374426 1.1325248e-38
0.46838525 -0.029555377 0.061353207 1.1610143e-38
0.46656892 -0.029445078 0.05831778 1.1893204e-38
0.46474296 -0.029568207 0.058296621 1.2353836e-38
0.46291697 -0.029691335 0.058275461 1.2815927e-38
0.46109098 -0.029814463 0.058254302 1.5584667e-38
0.45926499 -0.029937577 0.058233142 1.8441629e-38
0.45743904 -0.030060705 0.058211982 1.7519703e-38
0.45561305 -0.030183833 0.058190823 1.6689931e-38
0.45378706 -0.030306961 0.058169663 1.5396677e-38
0.45196107 -0.03043009 0.058148503 1.4201344e-38
0.45006827 -0.030790489 0.061140954 1.235276e-38
0.44823658 -0.030914005 0.061119735 1.0606816e-38
0.44640487 -0.031037506 0.061098456 1.0327369e-38
0.44457316 -0.031161021 0.061077237 1.0146571e-38
0.44268167 -0.031443741 0.063064933 1.1251827e-38
0.44065532 -0.032045934 0.069070339 1.2358843e-38
0.43863982 -0.032569822 0.07407099 1.1432203e-38
0.4366765 -0.032934975 0.077062666 1.0597411e-38
0.43458915 -0.033541281 0.083067358 1.0046734e-38
0.43263668 -0.033828121 0.085054398 9.493961e-39
0.43075922 -0.033954721 0.085032642 1.0507412e-38
0.42888176 -0.034081314 0.085010886 1.1530221e-38
0.42700434 -0.034207907 0.08498913 1.4296829e-38
0.42470342 -0.0350614 0.094005644 1.7057982e-38
0.4228088 -0.035189148 0.09398371 1.678103e-38
0.42045641 -0.036046114 0.10299975 1.641261e-38
0.47948238 -0.031271998 0.069606602 7.0914853e-39
0.47763541 -0.031396542 0.069585204 6.5393807e-39
0.47577512 -0.031283494 0.066548944 6.6290484e-39
0.47392625 -0.031169679 0.063512862 6.6319182e-39
0.47209075 -0.031293448 0.063491583 8.8470908e-39
0.47025776 -0.031258043 0.061460555 1.1052261e-38
0.46842608 -0.031381544 0.061439335 1.1426102e-38
0.4666096 -0.031265538 0.058403611 1.1705573e-38
0.46478361 -0.031388666 0.058382452 1.1430445e-38
0.46295765 -0.03151178 0.058361292 1.1161796e-38
0.46113166 -0.031634908 0.058340132 1.447868e-38
0.45930567 -0.031758036 0.058318973 1.7793022e-38
0.45747969 -0.031881165 0.058297813 1.7428204e-38
0.45565373 -0.032004278 0.058276653 1.6962918e-38
0.45382774 -0.032127406 0.058255494 1.659485e-38
0.45200175 -0.032250535 0.058234334 1.6220293e-38
0.45010906 -0.032616656 0.061227083 1.3827149e-38
0.44827738 -0.032740172 0.061205804 1.1431534e-38
0.44644567 -0.032863673 0.061184585 1.0504928e-38
0.44461399 -0.032987189 0.061163366 9.4983233e-39
0.44278228 -0.033110704 0.061142147 1.0050051e-38
0.44079176 -0.033642408 0.066143572 1.0514593e-38
0.43874854 -0.034257155 0.072149336 1.0696813e-38
0.43671799 -0.034791555 0.077150226 1.0875805e-38
0.4346309 -0.035409261 0.083155453 1.0139314e-38
0.43275726 -0.035535593 0.083133757 9.402134e-39
0.43088365 -0.03566194 0.083112001 1.0133603e-38
0.42901 -0.035788272 0.083090305 1.0793021e-38
0.42704618 -0.036079694 0.085077405 1.3931281e-38
0.42488664 -0.036702272 0.091081738 1.6964712e-38
0.42299777 -0.036829647 0.091059804 1.6689197e-38
0.48140109 -0.033230957 0.072730243 7.4663733e-39
0.47952351 -0.033113386 0.069693446 6.725581e-39
0.47767657 -0.03323793 0.069672048 5.9901782e-39
0.47581613 -0.033119168 0.066635489 6.5411884e-39
0.47396713 -0.032999646 0.063599169 7.0936363e-39
0.47213164 -0.033123415 0.06357789 8.5673076e-39
0.47029856 -0.03308421 0.061546683 1.0131403e-38
0.46846688 -0.033207726 0.061525464 1.0873643e-38
0.46663517 -0.033331241 0.061504185 1.1704484e-38
0.46482429 -0.033209141 0.058468282 1.1429712e-38
0.46299833 -0.033332255 0.058447123 1.1156043e-38
0.46117234 -0.033455383 0.058425963 1.3555646e-38
0.45934635 -0.033578511 0.058404803 1.5955934e-38
0.45752037 -0.03370164 0.058383644 1.5493538e-38
0.45569441 -0.033824753 0.058362484 1.5026832e-38
0.45386842 -0.033947881 0.058341324 1.4749895e-38
0.45198157 -0.034319323 0.061334431 1.456331e-38
0.45014989 -0.034442838 0.061313152 1.3273622e-38
0.44831818 -0.034566339 0.061291933 1.207258e-38
0.44648647 -0.034689855 0.061270714 1.0414872e-38
0.44465479 -0.034813371 0.061249495 8.852228e-39
0.44276345 -0.03510369 0.063237548 9.5879812e-39
0.44083279 -0.035478082 0.066230118 1.032984e-38
0.43878978 -0.036104228 0.072236419 1.060427e-38
0.43675947 -0.036648151 0.077237785 1.0966943e-38
0.43478495 -0.037025478 0.080229878 1.0414129e-38
0.43279901 -0.037403572 0.083221853 9.9538728e-39
0.43092537 -0.037529919 0.083200097 1.0231169e-38
0.42896542 -0.037824873 0.085187435 1.0423522e-38
0.42708799 -0.037951473 0.085165679 1.3744021e-38
0.42478782 -0.038839158 0.094183803 1.6966148e-38
0.42289323 -0.038966905 0.094161868 1.6689198e-38
0.48144236 -0.035078045 0.072817326 7.2762241e-39
0.47956467 -0.034954753 0.06978029 6.3546377e-39
0.47771773 -0.035079297 0.069758892 5.3473227e-39
0.47585717 -0.034954842 0.066722095 6.4511493e-39
0.47401592 -0.035078999 0.066700757 7.4609895e-39
0.47217253 -0.034953382 0.063664198 8.3804304e-39
0.47033939 -0.034910377 0.061632812 9.2137756e-39
0.46850768 -0.035033893 0.061611533 1.0415898e-38
0.46667597 -0.035157409 0.061590314 1.1611208e-38
0.46486497 -0.035029616 0.058554173 1.1336076e-38
0.46303901 -0.035152745 0.058533013 1.1064187e-38
0.46121302 -0.035275873 0.058511853 1.263188e-38
0.45938703 -0.035398986 0.058490694 1.4110235e-38
0.45751747 -0.035774957 0.061484218 1.3562829e-38
0.45573509 -0.035645243 0.058448374 1.3002831e-38
0.4539091 -0.035768371 0.058427215 1.299815e-38
0.45202237 -0.03614549 0.0614205 1.2906658e-38
0.45019069 -0.03626899 0.061399281 1.2815523e-38
0.44835898 -0.036392506 0.061378062 1.2624316e-38
0.4465273 -0.036516022 0.061356843 1.0413088e-38
0.44463986 -0.036809888 0.063345134 8.1150343e-39
0.44280434 -0.036933657 0.063323855 9.1198312e-39
0.44077876 -0.03757007 0.069330812 1.0141504e-38
0.43883106 -0.037951302 0.072323501 1.0607141e-38
0.43690741 -0.038247641 0.074311316 1.0969809e-38
0.43482655 -0.03888775 0.080317676 1.0780029e-38
0.43284073 -0.039271567 0.083309948 1.0505236e-38
0.43096712 -0.039397914 0.083288193 1.0321561e-38
0.42909348 -0.039524246 0.083266497 1.0056532e-38
0.42712981 -0.039823268 0.085253954 1.3562498e-38
0.42525238 -0.039949853 0.085232198 1.6964715e-38
0.42293543 -0.040855791 0.094250977 1.6780682e-38
0.48339733 -0.037222113 0.077952385 7.9082853e-39
0.48148364 -0.036925133 0.072904408 6.1727422e-39
0.47963098 -0.03705005 0.07288295 6.172745e-39
0.47775885 -0.036920678 0.069845736 6.174554e-39
0.47591192 -0.037045222 0.069824338 6.724865e-39
0.47405696 -0.036914658 0.066787302 7.1840607e-39
0.47221342 -0.036783364 0.063750505 8.8432163e-39
0.47037789 -0.036907118 0.063729227 1.0407287e-38
0.46854848 -0.036860075 0.061697662 1.0964754e-38
0.4667168 -0.036983576 0.061676443 1.1519368e-38
0.46490565 -0.036850091 0.058640003 1.1428263e-38
0.46307969 -0.036973219 0.058618844 1.1428641e-38
0.4612537 -0.037096333 0.058597684 1.2445667e-38
0.45942771 -0.037219461 0.058576524 1.3463421e-38
0.4575583 -0.037601139 0.061570346 1.3096107e-38
0.45572659 -0.03772464 0.061549067 1.2811594e-38
0.45389488 -0.037848156 0.061527848 1.2442419e-38
0.4520632 -0.037971672 0.061506629 1.2167284e-38
0.45023149 -0.038095172 0.06148541 1.2352761e-38
0.44839978 -0.038218688 0.06146419 1.2532129e-38
0.4465681 -0.038342204 0.061442971 1.1336832e-38
0.44468075 -0.03863987 0.063431442 1.0227254e-38
0.44284526 -0.038763639 0.063410163 1.0505609e-38
0.44091481 -0.03914943 0.06640327 1.0785067e-38
0.43887234 -0.03979839 0.072410643 1.1157437e-38
0.43694878 -0.040098514 0.074398637 1.1525124e-38
0.43498024 -0.040486868 0.077391326 1.0967639e-38
0.43300027 -0.040875982 0.080383837 1.0414468e-38
0.43100888 -0.041265879 0.083376288 1.004748e-38
0.42913523 -0.041392211 0.083354592 9.77492e-39
0.42726159 -0.041518558 0.083332896 1.3373442e-38
0.42529419 -0.041821633 0.085320473 1.7059063e-38
0.48340207 -0.038819861 0.075023711 9.4601589e-39
0.48152491 -0.038772207 0.07299155 5.0639045e-39
0.47964695 -0.038637515 0.069953978 6.0809235e-39
0.47780001 -0.038762059 0.06993258 6.999284e-39
0.47593918 -0.03862619 0.066895187 6.9982135e-39
0.47409797 -0.038750332 0.066873908 6.9114142e-39
0.47225431 -0.038613345 0.063836753 9.3088369e-39
0.47042099 -0.038562741 0.06180501 1.1606882e-38
0.46858931 -0.038686257 0.061783791 1.1516489e-38
0.46677232 -0.038547438 0.058746994 1.1334984e-38
0.46494633 -0.038670566 0.058725834 1.1520461e-38
0.46312037 -0.038793694 0.058704674 1.170594e-38
0.46129438 -0.038916808 0.058683515 1.2258759e-38
0.45946839 -0.039039936 0.058662355 1.272443e-38
0.45764241 -0.039163064 0.058641195 1.2729489e-38
0.45581645 -0.039286193 0.058620036 1.2630447e-38
0.45399046 -0.039409321 0.058598876 1.1976804e-38
0.452104 -0.039797854 0.061592758 1.1339338e-38
0.45027229 -0.039921355 0.061571538 1.1896093e-38
0.44844061 -0.04004487 0.061550319 1.2355282e-38
0.4466089 -0.040168386 0.0615291 1.2357806e-38
0.44472164 -0.040469851 0.063517749 1.2350965e-38
0.44279706 -0.040860947 0.066511154 1.1890686e-38
0.44086105 -0.041252833 0.069504499 1.1431867e-38
0.43901411 -0.041377377 0.069483101 1.1712756e-38
0.43706095 -0.041770395 0.072476268 1.1984668e-38
0.43502173 -0.042343449 0.077478886 1.1150967e-38
0.43315953 -0.042469006 0.077457309 1.0231523e-38
0.43117398 -0.04286423 0.080450058 9.8627352e-39
0.42930606 -0.042990174 0.080428362 9.4093703e-39
0.42730331 -0.043386538 0.083420992 1.3280164e-38
0.4254297 -0.04351287 0.083399236 1.7056552e-38
0.48341885 -0.040494349 0.07310009 1.0665137e-38
0.48156619 -0.04061928 0.073078632 7.0821386e-39
0.47968811 -0.040478881 0.070040822 7.8200708e-39
0.47784114 -0.040603425 0.070019424 8.5590568e-39
0.4759942 -0.040727969 0.069998026 9.0193062e-39
0.47413898 -0.040586021 0.066960454 9.4810046e-39
0.47229519 -0.040443312 0.063923061 1.068743e-38
0.47046179 -0.040388908 0.061891139 1.1889201e-38
0.46863011 -0.040512424 0.061869919 1.1701958e-38
0.466813 -0.040367913 0.058832884 1.1425748e-38
0.46498701 -0.040491041 0.058811724 1.161266e-38
0.46316105 -0.040614169 0.058790565 1.1799208e-38
0.46133506 -0.040737282 0.058769405 1.2259468e-38
0.45950907 -0.040860411 0.058748245 1.27212e-38
0.45768309 -0.040983539 0.058727086 1.3095402e-38
0.45585713 -0.041106667 0.058705926 1.3463436e-38
0.45403114 -0.041229796 0.058684766 1.1983279e-38
0.4521448 -0.041624021 0.061678886 1.0511033e-38
0.45031312 -0.041747522 0.061657667 1.1066343e-38
0.44848141 -0.041871037 0.061636448 1.1716031e-38
0.44659805 -0.042176049 0.063625276 1.1804662e-38
0.44476253 -0.042299818 0.063603997 1.1804989e-38
0.44292703 -0.042423587 0.063582778 1.1432236e-38
0.4409022 -0.043094199 0.069591343 1.1062739e-38
0.43895489 -0.043492537 0.072584867 1.1526575e-38
0.43710223 -0.043617468 0.07256335 1.1896428e-38
0.43517503 -0.043925431 0.074551642 1.1245686e-38
0.43320101 -0.044325586 0.077544868 1.0691787e-38
0.43121558 -0.044726502 0.080537856 1.0138962e-38
0.42921871 -0.045128185 0.083530784 9.5862225e-39
0.42734507 -0.045254532 0.083509088 1.3187604e-38
0.42547143 -0.045380864 0.083487332 1.6787861e-38
0.4224776 -0.047630008 0.10657555 1.6967963e-38
0.42056012 -0.047759306 0.10655326 1.705692e-38
0.41864264 -0.047888603 0.10653108 1.7149106e-38
0.48346013 -0.042341437 0.073187232 1.185397e-38
0.48160747 -0.042466369 0.073165774 9.0110428e-39
0.47972924 -0.042320248 0.070127666 9.5581377e-39
0.4778823 -0.042444792 0.070106268 1.011668e-38
0.47602123 -0.042297553 0.067068338 1.1038618e-38
0.47418001 -0.042421695 0.067047 1.1966674e-38
0.47233608 -0.042273294 0.064009368 1.2071081e-38
0.47050261 -0.04221509 0.061977267 1.2162923e-38
0.4686709 -0.042338606 0.061956048 1.1884913e-38
0.46685368 -0.042188387 0.058918715 1.1518657e-38
0.46502769 -0.042311516 0.058897555 1.1705207e-38
0.46322763 -0.042160142 0.055860341 1.1890317e-38
0.46137574 -0.042557757 0.058855236 1.2258741e-38
0.45954975 -0.042680886 0.058834076 1.2631154e-38
0.45772377 -0.042804014 0.058812916 1.346705e-38
0.45589778 -0.042927142 0.058791757 1.4196682e-38
0.45407182 -0.043050271 0.058770597 1.1890362e-38
0.45218563 -0.043450203 0.061765015 9.591951e-39
0.45035392 -0.043573704 0.061743796 1.0325187e-38
0.44852221 -0.043697219 0.061722577 1.1063839e-38
0.44663894 -0.044006031 0.063711584 1.1155336e-38
0.44480342 -0.0441298 0.063690305 1.1247874e-38
0.44287911 -0.04453231 0.066684306 1.0969842e-38
0.44094336 -0.044935565 0.069678187 1.0697206e-38
0.43899617 -0.045339625 0.07267195 1.1250731e-38
0.4371435 -0.045464557 0.072650492 1.1801369e-38
0.43529084 -0.045589473 0.072629035 1.1427195e-38
0.43335989 -0.045901503 0.074617445 1.1059845e-38
0.4313803 -0.046307739 0.07761085 1.0415196e-38
0.4295181 -0.046433311 0.077589273 9.6841565e-39
0.42599642 -0.050034624 0.11474961 1.3095402e-38
0.42420399 -0.049882751 0.1117124 1.650589e-38
0.42252031 -0.049541708 0.10666567 1.6877558e-38
0.42060283 -0.049671005 0.1066435 1.7242025e-38
0.41868538 -0.049800303 0.10662121 1.7240943e-38
0.48164874 -0.044313442 0.073252857 1.0764528e-38
0.47977039 -0.044161629 0.07021451 1.0945364e-38
0.47792345 -0.044286173 0.070193112 1.1219072e-38
0.47606224 -0.044133227 0.067154944 1.1594659e-38
0.47422102 -0.044257369 0.067133605 1.2061751e-38
0.47237697 -0.044103276 0.064095676 1.2068946e-38
0.47054341 -0.044041257 0.062063396 1.2164009e-38
0.46872035 -0.043885719 0.059025705 1.1885271e-38
0.46689436 -0.044008847 0.059004545 1.1701966e-38
0.46506837 -0.044131976 0.058983386 1.1796318e-38
0.46326816 -0.043974925 0.055945933 1.189031e-38
0.46144792 -0.044097651 0.055924833 1.2074702e-38
0.45959044 -0.044501346 0.058919907 1.2353491e-38
0.45776445 -0.044624474 0.058898747 1.3648927e-38
0.45593846 -0.044747602 0.058877587 1.4934951e-38
0.4541125 -0.04487073 0.058856428 1.2720822e-38
0.45222643 -0.04527637 0.061851144 1.0600338e-38
0.45039472 -0.045399871 0.061829925 1.0968381e-38
0.44856301 -0.045523386 0.061808646 1.1334665e-38
0.44667983 -0.045836013 0.063797891 1.1522657e-38
0.44484431 -0.045959782 0.063776612 1.1795654e-38
0.44292012 -0.046367984 0.066770852 1.1615213e-38
0.44098449 -0.046776947 0.069765031 1.1433341e-38
0.43913755 -0.046901491 0.069743633 1.1711004e-38
0.43718478 -0.04731163 0.072737575 1.1987915e-38
0.43533212 -0.047436547 0.072716117 1.1614802e-38
0.43340126 -0.047752377 0.074704707 1.1153474e-38
0.43129879 -0.048451062 0.080713511 1.0599951e-38
0.42831543 -0.051065501 0.10682255 1.004827e-38
0.42603949 -0.051961523 0.11484045 1.3094316e-38
0.42424691 -0.051803928 0.111803 1.6048142e-38
0.42256302 -0.051453378 0.10675579 1.6599895e-38
0.42064556 -0.051582675 0.10673362 1.714947e-38
0.41872808 -0.051711973 0.10671145 1.7149109e-38
0.48169002 -0.046160515 0.073339939 1.2422245e-38
0.47981155 -0.04600301 0.070301354 1.2330806e-38
0.47796458 -0.046127554 0.070279896 1.223861e-38
0.47610328 -0.045968901 0.06724149 1.2150721e-38
0.47425339 -0.045809474 0.064203262 1.2065359e-38
0.47241786 -0.045933243 0.064181983 1.2070039e-38
0.47058421 -0.045867424 0.062149525 1.2069658e-38
0.46876103 -0.045706194 0.059111595 1.1974213e-38
0.46693504 -0.045829322 0.059090436 1.1793429e-38
0.46512899 -0.045666967 0.056052625 1.1795958e-38
0.46330872 -0.045789707 0.056031525 1.1797037e-38
0.46148846 -0.045912433 0.056010425 1.1887801e-38
0.45966819 -0.046035174 0.055989325 1.19883e-38
0.45780513 -0.046444949 0.058984637 1.3839416e-38
0.45597914 -0.046568077 0.058963478 1.5577456e-38
0.45415318 -0.046691205 0.058942318 1.3641e-38
0.45226723 -0.047102537 0.061937213 1.16163e-38
0.45043552 -0.047226038 0.061915994 1.1613777e-38
0.44860384 -0.047349554 0.061894774 1.1617371e-38
0.44677213 -0.047473069 0.061873555 1.1988667e-38
0.44488519 -0.047789749 0.06386292 1.2262379e-38
0.44296116 -0.048203658 0.066857398 1.2262019e-38
0.44111991 -0.048327815 0.066836059 1.2171261e-38
0.43917871 -0.048742872 0.069830477 1.2172338e-38
0.43722606 -0.049158704 0.072824717 1.2170517e-38
0.43537337 -0.04928362 0.072803199 1.170629e-38
0.43344262 -0.04960325 0.074792027 1.1244605e-38
0.43134043 -0.05031335 0.080801308 1.0874035e-38
0.42947251 -0.050439294 0.080779672 1.0421e-38
0.42608255 -0.053888407 0.11493129 1.3001407e-38
0.42428985 -0.05372512 0.11189359 1.5584301e-38
0.42260575 -0.053365063 0.10684603 1.6323671e-38
0.42068827 -0.05349436 0.10682374 1.7057276e-38
0.4817313 -0.048007589 0.073427081 1.2240739e-38
0.47985268 -0.047844391 0.070388138 1.2060337e-38
0.4779855 -0.047680419 0.067349374 1.1968147e-38
0.47614428 -0.047804575 0.067328036 1.2065368e-38
0.47429428 -0.047639441 0.06428957 1.2254432e-38
0.47245672 -0.047570106 0.062256873 1.2254085e-38
0.47062501 -0.047693621 0.062235653 1.2345161e-38
0.46880171 -0.047526684 0.059197426 1.2068534e-38
0.46697572 -0.047649812 0.059176266 1.1885252e-38
0.46516955 -0.047481734 0.056138217 1.1795598e-38
0.4633663 -0.04741006 0.054105878 1.1797036e-38
0.46154985 -0.047532547 0.054084837 1.1797756e-38
0.45970875 -0.047849942 0.056074917 1.1709207e-38
0.45788848 -0.047972683 0.056053817 1.3463823e-38
0.45601982 -0.048388567 0.059049308 1.5210487e-38
0.45419386 -0.048511695 0.059028149 1.3919763e-38
0.45236787 -0.048634809 0.059006989 1.2721946e-38
0.45047635 -0.049052235 0.062002122 1.2999236e-38
0.44864464 -0.04917575 0.061980903 1.3276894e-38
0.44681293 -0.049299266 0.061959684 1.3001743e-38
0.44492608 -0.049619716 0.063949227 1.2819504e-38
0.44300216 -0.050039332 0.066944003 1.2633318e-38
0.44116095 -0.050163489 0.066922665 1.2450362e-38
0.43921983 -0.050584253 0.069917321 1.2357088e-38
0.43737289 -0.050708782 0.069895864 1.2356707e-38
0.43541464 -0.051130693 0.072890341 1.207472e-38
0.43348399 -0.051454138 0.074879289 1.1794911e-38
0.4312593 -0.052473772 0.083904862 1.1522636e-38
0.42891467 -0.053694721 0.094940364 1.1249321e-38
0.42661756 -0.054719251 0.1039651 1.3554574e-38
0.4247058 -0.054848161 0.10394293 1.5861244e-38
0.42264846 -0.055276763 0.10693616 1.6322236e-38
0.42073098 -0.05540606 0.10691386 1.6872888e-38
0.47989383 -0.049685758 0.070474982 1.1885274e-38
0.47802654 -0.049516093 0.06743598 1.1609413e-38
0.47617069 -0.049345654 0.064397097 1.1979986e-38
0.47433516 -0.049469423 0.064375818 1.2346977e-38
0.47249752 -0.049396273 0.062342942 1.2530655e-38
0.47066584 -0.049519788 0.062321723 1.2622106e-38
0.46884239 -0.049347159 0.059283257 1.2252945e-38
0.46703035 -0.049173761 0.05624485 1.1885982e-38
0.46522322 -0.04909857 0.054212332 1.1887436e-38
0.46340677 -0.049221043 0.054191291 1.1797036e-38
0.46159032 -0.04934353 0.054170251 1.1613725e-38
0.45977387 -0.049466003 0.05414921 1.1434053e-38
0.45792904 -0.049787451 0.05613941 1.3096474e-38
0.45610878 -0.049910191 0.056118309 1.4750945e-38
0.45428851 -0.050032932 0.056097209 1.4289253e-38
0.45240855 -0.050455283 0.05909282 1.3737157e-38
0.45051715 -0.050878402 0.062088251 1.4384664e-38
0.44868544 -0.051001918 0.062067032 1.4931728e-38
0.44685376 -0.051125433 0.062045813 1.4105564e-38
0.444967 -0.051449697 0.064035535 1.3276876e-38
0.44313148 -0.051573467 0.064014256 1.3000635e-38
0.44120196 -0.051999163 0.067009211 1.272334e-38
0.43926099 -0.052425619 0.070004106 1.2632228e-38
0.43741405 -0.052550148 0.069982708 1.2446751e-38
0.43545592 -0.052977782 0.072977424 1.2349523e-38
0.43352532 -0.053305011 0.074966609 1.2259851e-38
0.43130106 -0.054341752 0.083992958 1.2171615e-38
0.42921352 -0.054975141 0.088997662 1.2080877e-38
0.42692825 -0.056015994 0.098023355 1.410666e-38
0.42488816 -0.056449141 0.10101706 1.6043479e-38
0.42283666 -0.056883063 0.10401064 1.6414789e-38
0.42077371 -0.057317745 0.10700411 1.6689574e-38
0.47993499 -0.051527139 0.070561826 1.2346603e-38
0.47806755 -0.051351782 0.067522526 1.2257281e-38
0.47622633 -0.051475938 0.067501187 1.2348043e-38
0.47438508 -0.05160008 0.067479849 1.2531357e-38
0.47253832 -0.05122244 0.06242907 1.2715747e-38
0.47070664 -0.051345956 0.062407851 1.2807934e-38
0.46888304 -0.051167618 0.059369147 1.2346237e-38
0.46707091 -0.050988544 0.056330442 1.1884917e-38
0.46525064 -0.051111285 0.056309342 1.1795243e-38
0.46344721 -0.05103201 0.054276705 1.170556e-38
0.46163079 -0.051154498 0.054255664 1.1429694e-38
0.45981434 -0.051276971 0.054234624 1.1245714e-38
0.45796961 -0.051602233 0.056225002 1.3001043e-38
0.45614934 -0.051724974 0.056203902 1.4661974e-38
0.45432907 -0.051847715 0.056182802 1.3922983e-38
0.45244923 -0.052275743 0.05917871 1.3276904e-38
0.45062324 -0.052398872 0.05915755 1.3276899e-38
0.44872624 -0.052828085 0.062153161 1.3276538e-38
0.44689456 -0.0529516 0.062131941 1.2999952e-38
0.44506285 -0.053075101 0.062110722 1.2722982e-38
0.44317237 -0.053403448 0.064100564 1.2630398e-38
0.44133687 -0.053527217 0.064079285 1.2534271e-38
0.43940175 -0.053958993 0.067074478 1.253823e-38
0.4375605 -0.05408315 0.067053139 1.2539665e-38
0.43560824 -0.054516073 0.070048153 1.2445676e-38
0.43356669 -0.055155899 0.075053871 1.244749e-38
0.43126112 -0.056416098 0.086091876 1.2448946e-38
0.42912728 -0.057162564 0.092102408 1.2448951e-38
0.4271045 -0.057600256 0.095096529 1.4108091e-38
0.42507026 -0.058038723 0.098090589 1.5770481e-38
0.42302459 -0.058477934 0.10108453 1.6230758e-38
0.42081642 -0.059229445 0.10709423 1.6781049e-38
0.47997612 -0.05336852 0.07064867 1.2806151e-38
0.47812918 -0.053493064 0.070627272 1.2808304e-38
0.47626734 -0.053311612 0.067587733 1.2807588e-38
0.47442612 -0.053435754 0.067566395 1.2716467e-38
0.47258145 -0.05325314 0.064527154 1.2901213e-38
0.47074744 -0.053172138 0.06249398 1.2992687e-38
0.46893173 -0.052680571 0.056437135 1.2438801e-38
0.46711147 -0.052803311 0.056416035 1.1886354e-38
0.46530414 -0.052720506 0.054383159 1.1703044e-38
0.46351284 -0.052534286 0.051344454 1.1520808e-38
0.46167123 -0.052965466 0.054341078 1.1337138e-38
0.45985478 -0.053087939 0.054320037 1.1063829e-38
0.45803833 -0.053210426 0.054298937 1.2816641e-38
0.45618987 -0.053539742 0.056289494 1.4567267e-38
0.4543696 -0.053662483 0.056268394 1.3647128e-38
0.45248991 -0.054096218 0.059264541 1.2726609e-38
0.45066392 -0.054219346 0.059243381 1.2169487e-38
0.44883794 -0.054342475 0.059222221 1.1531656e-38
0.44693536 -0.054777782 0.06221801 1.189505e-38
0.44510365 -0.054901283 0.062196791 1.2173776e-38
0.44321325 -0.055233415 0.064186871 1.2263092e-38
0.44137776 -0.055357184 0.064165592 1.2356712e-38
0.43954223 -0.055480953 0.064144313 1.2446745e-38
0.43760154 -0.055918824 0.067139685 1.2538225e-38
0.43564939 -0.056357455 0.070134997 1.2537151e-38
0.43360806 -0.057006773 0.075141132 1.2540042e-38
0.43138453 -0.058077712 0.084169149 1.2635127e-38
0.42916936 -0.059045743 0.092191219 1.2727333e-38
0.4271467 -0.059489127 0.095185637 1.410667e-38
0.42525211 -0.059616875 0.095163643 1.5491755e-38
0.42321229 -0.060061451 0.098157942 1.6139647e-38
0.48001727 -0.055209901 0.070735514 1.308418e-38
0.47814959 -0.055023115 0.067695677 1.3086333e-38
0.47630838 -0.055147272 0.067674339 1.2993061e-38
0.47446713 -0.055271413 0.067653 1.290122e-38
0.47261995 -0.054874789 0.062601328 1.3086677e-38
0.47079039 -0.054685455 0.059561968 1.336398e-38
0.46897227 -0.054495338 0.056522727 1.243953e-38
0.46716106 -0.054409001 0.054489613 1.1517939e-38
0.46534461 -0.054531489 0.054468572 1.142753e-38
0.46355319 -0.054339562 0.051429629 1.1429685e-38
0.46174246 -0.054461662 0.051408648 1.1336416e-38
0.45989525 -0.054898921 0.054405391 1.1243188e-38
0.4580788 -0.055021409 0.054384351 1.2998865e-38
0.45623043 -0.05535451 0.056375086 1.4754882e-38
0.45441017 -0.05547725 0.056353986 1.4570156e-38
0.45253059 -0.055916708 0.059350371 1.4383596e-38
0.4507046 -0.056039836 0.059329212 1.4292817e-38
0.44887862 -0.056162965 0.059308052 1.420349e-38
0.44697616 -0.05660395 0.062304139 1.4293886e-38
0.44514447 -0.05672745 0.06228292 1.4385734e-38
0.44325414 -0.057063397 0.064273119 1.4385029e-38
0.44141865 -0.057187166 0.0642519 1.4387151e-38
0.43948376 -0.057630327 0.06724757 1.3461949e-38
0.43764254 -0.057754483 0.067226231 1.2629338e-38
0.43569052 -0.058198836 0.070221841 1.2538226e-38
0.43372709 -0.058643933 0.073217273 1.2448205e-38
0.43142626 -0.059945691 0.084257185 1.2726601e-38
0.42933938 -0.060607601 0.08926326 1.2912085e-38
0.42732257 -0.061056282 0.092258096 1.4385059e-38
0.42529431 -0.061505776 0.095252752 1.5766913e-38
0.42339972 -0.061633524 0.095230818 1.6229694e-38
0.4800584 -0.057051282 0.070822358 1.3452242e-38
0.4781906 -0.056858804 0.067782223 1.3361483e-38
0.47633424 -0.056665566 0.064742327 1.3177453e-38
0.47449872 -0.056789335 0.064721048 1.2994497e-38
0.47266075 -0.056700956 0.062687457 1.336363e-38
0.47083107 -0.056505915 0.059647858 1.3729536e-38
0.46901798 -0.056097481 0.054596066 1.2436661e-38
0.46720153 -0.056219969 0.054575026 1.1058392e-38
0.46538508 -0.056342456 0.054553986 1.1151284e-38
0.46359351 -0.056144822 0.051514745 1.1244211e-38
0.46178278 -0.056266923 0.051493764 1.133606e-38
0.45997205 -0.056389023 0.051472783 1.1338249e-38
0.45816132 -0.056511108 0.051451802 1.3181093e-38
0.45630282 -0.056954864 0.054448724 1.4936401e-38
0.45448637 -0.057077337 0.054427683 1.5494261e-38
0.45263046 -0.057414759 0.056418478 1.5951642e-38
0.45081019 -0.0575375 0.056397378 1.6414405e-38
0.4489193 -0.057983425 0.059393942 1.6872139e-38
0.44709331 -0.058106553 0.059372783 1.6782448e-38
0.44518527 -0.058553617 0.062369049 1.6595915e-38
0.44335356 -0.058677133 0.062347829 1.6504088e-38
0.44145954 -0.059017148 0.064338148 1.6317151e-38
0.43962401 -0.059140917 0.064316928 1.4475741e-38
0.43768358 -0.059590172 0.067312837 1.2631849e-38
0.43573168 -0.060040217 0.070308685 1.2537497e-38
0.43376836 -0.060491022 0.073304415 1.2357081e-38
0.4319157 -0.060615938 0.073282897 1.272768e-38
0.42938134 -0.062485073 0.089351833 1.3096472e-38
0.42736465 -0.06293948 0.092346907 1.4570878e-38
0.42533651 -0.063394651 0.095341802 1.604313e-38
0.42344192 -0.063522398 0.095319867 1.6414075e-38
0.47823164 -0.058694478 0.067868769 1.3087056e-38
0.47637513 -0.058495533 0.064828634 1.3086698e-38
0.47453964 -0.058619302 0.064807355 1.3178176e-38
0.47270155 -0.058527153 0.062773585 1.354803e-38
0.47087175 -0.05832639 0.059733689 1.4008994e-38
0.46905845 -0.057908449 0.05468148 1.253065e-38
0.467242 -0.058030937 0.054660439 1.1056588e-38
0.46544459 -0.057827998 0.051620841 1.1242021e-38
0.46363387 -0.057950098 0.05159986 1.1427513e-38
0.46182314 -0.058072198 0.051578879 1.1428616e-38
0.46001238 -0.058194298 0.051557899 1.1520482e-38
0.45820165 -0.058316384 0.051536918 1.3090325e-38
0.45634329 -0.058765832 0.054534137 1.4570495e-38
0.45452684 -0.058888305 0.054513097 1.5401e-38
0.45267102 -0.059229542 0.056504011 1.6227894e-38
0.45085075 -0.059352282 0.056482971 1.6413372e-38
0.44895998 -0.059803899 0.059479773 1.669066e-38
0.44713399 -0.059927028 0.059458613 1.6598094e-38
0.44522607 -0.060379814 0.062455177 1.6507339e-38
0.44333595 -0.060723346 0.064445734 1.6412997e-38
0.44150043 -0.060847115 0.064424455 1.6319324e-38
0.43956581 -0.06130169 0.067420721 1.4382842e-38
0.43772459 -0.061425846 0.067399383 1.2446386e-38
0.43577284 -0.061881583 0.070395529 1.2538203e-38
0.43380964 -0.062338095 0.073391497 1.263366e-38
0.4317537 -0.063016951 0.078398824 1.2818082e-38
0.42963612 -0.063807979 0.084411681 1.3001766e-38
0.42754012 -0.064489529 0.08941853 1.4477243e-38
0.42565697 -0.064616516 0.089396715 1.6043123e-38
0.42348412 -0.065411299 0.095408976 1.6321153e-38
0.42158952 -0.065539062 0.095386982 1.6688852e-38
0.47458053 -0.060449269 0.064893663 1.3271446e-38
0.47274238 -0.06035332 0.062859714 1.373277e-38
0.47091419 -0.05981693 0.056800544 1.4189432e-38
0.46909893 -0.059719417 0.054766893 1.2620691e-38
0.46728247 -0.059841905 0.054745793 1.0965124e-38
0.46548492 -0.059633259 0.051706016 1.1241331e-38
0.46367419 -0.059755359 0.051685035 1.1519726e-38
0.46186346 -0.059877459 0.051663995 1.1613732e-38
0.46005273 -0.059999559 0.051643014 1.1707381e-38
0.458242 -0.060121644 0.051622033 1.2996686e-38
0.45638376 -0.0605768 0.054619551 1.4200997e-38
0.45456731 -0.060699273 0.054598451 1.5310961e-38
0.45275086 -0.06082176 0.05457741 1.6412277e-38
0.45089129 -0.061167065 0.056568503 1.6412642e-38
0.44900066 -0.061624374 0.059565604 1.6412994e-38
0.44717467 -0.061747503 0.059544444 1.6412271e-38
0.44526687 -0.062205981 0.062541306 1.6320436e-38
0.44337684 -0.062553316 0.064532042 1.6320437e-38
0.44154131 -0.062677085 0.064510763 1.6315724e-38
0.43960685 -0.063137367 0.067507267 1.4289913e-38
0.43766093 -0.063598424 0.070503771 1.2263435e-38
0.43581396 -0.063722968 0.070482314 1.2535715e-38
0.43385088 -0.064185172 0.07347858 1.2815903e-38
0.43179518 -0.064873531 0.078486383 1.2817715e-38
0.4298054 -0.065337539 0.081482232 1.2819167e-38
0.42780423 -0.065802321 0.08447808 1.4384693e-38
0.42555994 -0.066833198 0.092502654 1.595057e-38
0.42367107 -0.066960573 0.092480779 1.6322228e-38
0.47278318 -0.062179487 0.062945783 1.3364343e-38
0.47095475 -0.061631698 0.056886137 1.3640567e-38
0.46913937 -0.0615304 0.054852247 1.2438095e-38
0.46732292 -0.061652888 0.054831207 1.1329969e-38
0.46552527 -0.061438534 0.051791131 1.1424671e-38
0.46371454 -0.061560635 0.051770151 1.1611938e-38
0.46190381 -0.061682735 0.05174917 1.1890323e-38
0.46009308 -0.061804835 0.051728189 1.2167634e-38
0.45828235 -0.06192692 0.051707208 1.2906633e-38
0.45642424 -0.062387783 0.054704905 1.3741456e-38
0.45460778 -0.062510252 0.054683864 1.4296467e-38
0.45279133 -0.06263274 0.054662824 1.4850709e-38
0.45093185 -0.062981829 0.056654096 1.4848556e-38
0.44911158 -0.06310457 0.056632996 1.4850709e-38
0.44721535 -0.063567966 0.059630334 1.4754567e-38
0.44538939 -0.06369108 0.059609175 1.4571611e-38
0.44347599 -0.064155668 0.062606156 1.4385067e-38
0.4415822 -0.064507067 0.06459707 1.4200984e-38
0.43964785 -0.064973056 0.067593873 1.3089937e-38
0.43770206 -0.06543979 0.070590556 1.2077256e-38
0.43585512 -0.065564334 0.070569158 1.2446413e-38
0.43389219 -0.066032261 0.073565722 1.2817345e-38
0.43183666 -0.066730112 0.078573942 1.2817705e-38
0.4297196 -0.067543939 0.084587872 1.281737e-38
0.4277572 -0.067899972 0.086578012 1.4383977e-38
0.42560202 -0.068716392 0.092591465 1.6042407e-38
0.42356855 -0.069189057 0.095587075 1.6321509e-38
0.47464573 -0.063541576 0.06003356 1.299594e-38
0.47282398 -0.064005658 0.063031912 1.308884e-38
0.47099379 -0.063787818 0.059991241 1.3087044e-38
0.46917984 -0.063341379 0.054937661 1.2344467e-38
0.46736339 -0.063463867 0.05491662 1.1606898e-38
0.46556562 -0.063243821 0.051876247 1.1698359e-38
0.46375486 -0.063365921 0.051855266 1.1703398e-38
0.46194413 -0.063488021 0.051834285 1.2167615e-38
0.4601334 -0.063610122 0.051813304 1.2536047e-38
0.45832267 -0.063732207 0.051792324 1.2904478e-38
0.45646468 -0.064198762 0.054790318 1.3277587e-38
0.45464826 -0.064321235 0.054769278 1.3282638e-38
0.4528318 -0.064443722 0.054748237 1.3280845e-38
0.45097241 -0.064796597 0.056739688 1.3279771e-38
0.44908202 -0.065265328 0.059737325 1.327797e-38
0.44725603 -0.065388456 0.059716165 1.3091422e-38
0.44543004 -0.065511569 0.059695005 1.2817348e-38
0.44351679 -0.065981835 0.062692285 1.2447135e-38
0.44162309 -0.066337049 0.064683378 1.1985779e-38
0.43968886 -0.06680873 0.067680418 1.1882798e-38
0.43774322 -0.067281172 0.0706774 1.1798877e-38
0.43589628 -0.067405716 0.070656002 1.226274e-38
0.43393344 -0.067879334 0.073652804 1.2724436e-38
0.43199971 -0.06823723 0.075643361 1.2725878e-38
0.42988864 -0.069062099 0.081657887 1.2726965e-38
0.42779902 -0.069771752 0.086666286 1.4383603e-38
0.42536661 -0.07130082 0.09871608 1.6041681e-38
0.47468641 -0.065362051 0.06011939 1.2995585e-38
0.47286478 -0.06583184 0.063118041 1.3180318e-38
0.47103447 -0.065608293 0.060077071 1.3457616e-38
0.46922031 -0.065152332 0.055023074 1.2438815e-38
0.46740386 -0.06527482 0.055002034 1.1513256e-38
0.46560594 -0.065049082 0.051961362 1.1698691e-38
0.46379521 -0.065171182 0.051940382 1.1885976e-38
0.46198449 -0.065293282 0.051919401 1.2258724e-38
0.46017376 -0.065415382 0.05189842 1.2720071e-38
0.45836303 -0.065537468 0.051877439 1.2812998e-38
0.4565523 -0.065659568 0.051856458 1.2997748e-38
0.4546887 -0.066132188 0.054854691 1.2906992e-38
0.45287225 -0.066254675 0.054833651 1.2812649e-38
0.45101297 -0.066611364 0.05682528 1.2813011e-38
0.4491927 -0.066734105 0.05680418 1.2808693e-38
0.44729671 -0.067208931 0.059801996 1.2720431e-38
0.44547072 -0.067332044 0.059780836 1.2719712e-38
0.44355759 -0.067808017 0.062778413 1.2352726e-38
0.44166398 -0.068167016 0.064769685 1.2074713e-38
0.4397299 -0.06864439 0.067767024 1.1981445e-38
0.43778437 -0.069122553 0.070764244 1.1983263e-38
0.4359374 -0.069247097 0.070742846 1.2353857e-38
0.43397471 -0.069726408 0.073739886 1.2724798e-38
0.43204108 -0.070088103 0.075730622 1.2725526e-38
0.43005744 -0.070568845 0.078727424 1.2633691e-38
0.42819524 -0.070694402 0.078705847 1.4292109e-38
0.42527032 -0.073551714 0.10182351 1.5948761e-38
0.47291303 -0.068245307 0.068237603 1.3363274e-38
0.47107515 -0.067428768 0.060162961 1.3730253e-38
0.46925613 -0.067198753 0.057121813 1.2531006e-38
0.46743587 -0.067321494 0.057100713 1.1331746e-38
0.4656463 -0.066854358 0.052046537 1.1696917e-38
0.46383554 -0.066976458 0.052025557 1.2071816e-38
0.46202481 -0.067098558 0.052004576 1.2445279e-38
0.46021408 -0.067220658 0.051983595 1.2812987e-38
0.45840335 -0.067342743 0.051962614 1.2721158e-38
0.45659262 -0.067464843 0.051941633 1.2628607e-38
0.45472917 -0.067943171 0.054940104 1.2534622e-38
0.45291272 -0.068065658 0.054919064 1.2352024e-38
0.4510535 -0.068426147 0.056910872 1.2351305e-38
0.44923323 -0.068548888 0.056889772 1.226018e-38
0.44733739 -0.069029406 0.059887886 1.2445638e-38
0.4455114 -0.069152519 0.059866726 1.2537112e-38
0.44359842 -0.069634199 0.062864542 1.2353079e-38
0.44170487 -0.069996998 0.064855993 1.2075786e-38
0.43977091 -0.070480064 0.06785357 1.2076151e-38
0.4378255 -0.070963919 0.070851088 1.207582e-38
0.43597856 -0.071088463 0.07082969 1.2444623e-38
0.43401599 -0.071573481 0.073827028 1.2724442e-38
0.43216333 -0.071698397 0.073805571 1.2633688e-38
0.43031067 -0.071823329 0.073784053 1.2543287e-38
0.4251743 -0.075814024 0.10493165 1.585836e-38
0.47295406 -0.070080996 0.068324208 1.308777e-38
0.4711147 -0.069607705 0.063269079 1.3364346e-38
0.46928984 -0.069372356 0.060227633 1.2531721e-38
0.46747643 -0.069136262 0.057186306 1.169802e-38
0.46568662 -0.068659633 0.052131653 1.1884195e-38
0.46387589 -0.068781734 0.052110672 1.2075779e-38
0.46206516 -0.068903834 0.052089691 1.2445293e-38
0.46025443 -0.069025934 0.05206871 1.2905903e-38
0.4584437 -0.069148019 0.052047729 1.2813347e-38
0.45663297 -0.069270119 0.052026749 1.2720079e-38
0.45476964 -0.069754139 0.055025518 1.2444216e-38
0.45295319 -0.069876626 0.055004418 1.2168342e-38
0.45109406 -0.070240915 0.056996405 1.1982869e-38
0.44927379 -0.070363656 0.056975365 1.1801709e-38
0.44737807 -0.070849866 0.059973717 1.1893186e-38
0.44555208 -0.070972979 0.059952557 1.1894977e-38
0.44363922 -0.071460366 0.062950671 1.1800267e-38
0.44174576 -0.071826965 0.064942241 1.1707006e-38
0.43981194 -0.072315753 0.067940116 1.179885e-38
0.4379707 -0.072439909 0.067918777 1.1891075e-38
0.43601972 -0.072929844 0.070916533 1.2354589e-38
0.43417275 -0.073054388 0.070895135 1.2910984e-38
0.4322046 -0.073545486 0.073892653 1.2726238e-38
0.43035194 -0.073670417 0.073871195 1.2540057e-38
0.47299507 -0.07191667 0.068410754 1.2811907e-38
0.47115484 -0.071676657 0.065368891 1.2994852e-38
0.46932381 -0.071557403 0.063333929 1.2533872e-38
0.46750453 -0.071315974 0.060292304 1.1977475e-38
0.46572697 -0.070464894 0.052216768 1.2065722e-38
0.46391624 -0.070586994 0.052195787 1.2072909e-38
0.46210551 -0.070709094 0.052174807 1.2537839e-38
0.46029475 -0.070831195 0.052153826 1.2905545e-38
0.45848402 -0.07095328 0.052132845 1.2905552e-38
0.45667329 -0.07107538 0.052111864 1.2812997e-38
0.45486256 -0.07119748 0.052090883 1.2353099e-38
0.45299366 -0.071687594 0.055089831 1.1890687e-38
0.45113462 -0.072055683 0.057081997 1.1610153e-38
0.44931436 -0.072178423 0.057060897 1.1337871e-38
0.44741875 -0.072670355 0.060059547 1.1337868e-38
0.44559276 -0.072793469 0.060038388 1.1247102e-38
0.44368002 -0.073286548 0.063036799 1.1337138e-38
0.44184831 -0.073410064 0.06301558 1.1337865e-38
0.43995115 -0.073780715 0.065007269 1.1521546e-38
0.43801171 -0.074275583 0.068005383 1.1615566e-38
0.43617049 -0.07439974 0.067984045 1.2354587e-38
0.43421391 -0.074895769 0.070981979 1.3093933e-38
0.43236697 -0.075020298 0.070960581 1.281986e-38
0.47303608 -0.073752344 0.0684973 1.281119e-38
0.47119573 -0.073506624 0.065455198 1.2902299e-38
0.46936023 -0.073630393 0.065433919 1.2441675e-38
0.4675329 -0.073507071 0.063398838 1.2071826e-38
