# .PCD v0.7 - Point Cloud Data file format
VERSION 0.7
FIELDS x y z rgb
SIZE 4 4 4 4
TYPE F F F F
COUNT 1 1 1 1
WIDTH 1046
HEIGHT 1
VIEWPOINT 0 0 0 1 0 0 0
POINTS 1046
DATA ascii
1.0493389 0.61723286 0.46413022 1.1709927e-38
1.046699 0.61705488 0.46409971 1.161809e-38
1.0440592 0.6168769 0.46406907 1.1709567e-38
1.0414194 0.61669886 0.46403843 1.1709215e-38
1.0387795 0.61652088 0.46400791 1.1524833e-38
1.0361397 0.61634284 0.46397728 1.1341514e-38
1.0334998 0.61616486 0.46394664 1.1432984e-38
1.0308599 0.61598688 0.46391612 1.1524822e-38
1.0282201 0.61580884 0.46388549 1.1524826e-38
1.0255803 0.61563087 0.46385497 1.143299e-38
1.0229404 0.61545283 0.46382433 1.1432988e-38
1.0203005 0.61527485 0.46379369 1.1432987e-38
1.0176606 0.61509681 0.46376318 1.1615939e-38
1.0150208 0.61491883 0.46373254 1.179961e-38
1.0100377 0.61227363 0.45777589 1.161522e-38
1.0074093 0.61209643 0.45774537 1.1432265e-38
1.0047808 0.61191916 0.45771497 1.1340427e-38
1.0021524 0.61174196 0.45768446 1.1156398e-38
1.0018215 0.61402881 0.4635796 1.1156041e-38
0.99918163 0.61385083 0.46354896 1.1156397e-38
0.99654174 0.61367279 0.46351844 1.1156394e-38
0.99390197 0.61349481 0.4634878 1.1157112e-38
0.99126208 0.61331677 0.46345729 1.1157472e-38
1.1153942 0.6190511 0.46501917 1.3090692e-38
1.1099763 0.61638796 0.45905691 1.2630441e-38
1.1073478 0.61621076 0.4590264 1.2170915e-38
1.1047194 0.61603349 0.458996 1.2262759e-38
1.102091 0.61585629 0.45896548 1.2354589e-38
1.0971855 0.61361063 0.45399243 1.2354224e-38
1.0945666 0.61343402 0.45396203 1.244606e-38
1.0919478 0.61325747 0.45393175 1.2262029e-38
1.0915773 0.61514735 0.45884365 1.2078359e-38
1.088949 0.61497015 0.45881313 1.2078719e-38
1.0863204 0.61479288 0.45878273 1.2078725e-38
1.0836921 0.61461568 0.45875221 1.2078011e-38
1.0810636 0.61443841 0.45872182 1.2077646e-38
1.0784352 0.61426121 0.4586913 1.2077637e-38
1.0784361 0.61655903 0.46459085 1.2078e-38
1.077978 0.61844301 0.46950179 1.1893975e-38
1.0731565 0.61620301 0.46452969 1.1802135e-38
1.0705166 0.61602503 0.46449906 1.1893606e-38
1.0678768 0.61584699 0.46446854 1.1985436e-38
1.0652369 0.61566901 0.4644379 1.1985429e-38
1.062597 0.61549103 0.46440727 1.1893595e-38
1.0599571 0.61531299 0.46437675 1.1893596e-38
1.0573173 0.61513501 0.46434611 1.180212e-38
1.0546775 0.61495697 0.46431559 1.1709925e-38
1.0520376 0.614779 0.46428496 1.1709927e-38
1.0493977 0.61460096 0.46425432 1.1709928e-38
1.0467578 0.61442298 0.4642238 1.1709927e-38
1.0441179 0.614245 0.46419317 1.1801401e-38
1.0414782 0.61406696 0.46416265 1.1800693e-38
1.0388383 0.61388898 0.46413201 1.1708867e-38
1.0361985 0.61371094 0.46410137 1.1617379e-38
1.0335586 0.61353296 0.46407086 1.1616649e-38
1.0309187 0.61335498 0.46404022 1.1616298e-38
1.0282788 0.61317694 0.46400958 1.1524826e-38
1.0256391 0.61299896 0.46397907 1.1524466e-38
1.0229992 0.61282092 0.46394843 1.1524822e-38
1.0203593 0.61264294 0.46391791 1.1524822e-38
1.0177194 0.6124649 0.46388727 1.1432628e-38
1.0150796 0.61228693 0.46385664 1.1432269e-38
1.0124397 0.61210895 0.46382612 1.1432627e-38
1.0074679 0.60947591 0.45786899 1.1432625e-38
1.0048394 0.60929865 0.45783848 1.1340788e-38
1.002211 0.60912144 0.45780808 1.1248596e-38
0.99958253 0.60894418 0.45777756 1.1248596e-38
0.9992404 0.61121893 0.46367317 1.1248594e-38
0.99660051 0.61104089 0.46364254 1.1248593e-38
0.99396074 0.61086291 0.4636119 1.1248946e-38
0.99132085 0.61068487 0.46358138 1.1157103e-38
1.1100348 0.6137675 0.45918041 1.2630084e-38
1.1074064 0.61359024 0.45915002 1.2263108e-38
1.1047779 0.61341304 0.4591195 1.235495e-38
1.0998628 0.61117625 0.45414585 1.2354587e-38
1.0945113 0.60852903 0.44818383 1.244606e-38
1.0919038 0.6083532 0.44815356 1.2537895e-38
1.0892963 0.60817736 0.4481234 1.2354226e-38
1.0866889 0.60800159 0.44809312 1.2078719e-38
1.0840814 0.60782576 0.44806296 1.2079078e-38
1.0863791 0.61217237 0.45890635 1.2078723e-38
1.0815306 0.60994011 0.45393342 1.2078009e-38
1.0811222 0.61181796 0.45884544 1.2078003e-38
1.0784937 0.61164069 0.45881492 1.2077999e-38
1.0758653 0.61146349 0.45878452 1.1986165e-38
1.0758551 0.61374915 0.46468443 1.1802497e-38
1.0732152 0.61357117 0.46465379 1.1618464e-38
1.0705754 0.61339313 0.46462327 1.1802132e-38
1.0679356 0.61321515 0.46459264 1.1985443e-38
1.0652957 0.61303717 0.464562 1.1985083e-38
1.0626558 0.61285913 0.46453148 1.1985439e-38
1.060016 0.61268115 0.46450084 1.1893601e-38
1.0548379 0.61004561 0.45854086 1.1802122e-38
1.0522095 0.60986835 0.45851034 1.1709928e-38
1.0495811 0.60969114 0.45847994 1.1618456e-38
1.0494566 0.61196911 0.46437854 1.1710294e-38
1.0468167 0.61179113 0.4643479 1.1801764e-38
1.0441768 0.61161309 0.46431726 1.1893235e-38
1.0390675 0.60898221 0.45835799 1.1893242e-38
1.0388972 0.61125708 0.46425611 1.1892892e-38
1.0362573 0.6110791 0.46422547 1.1801049e-38
1.0336174 0.61090106 0.46419495 1.1708489e-38
1.0309776 0.61072308 0.46416432 1.1617018e-38
1.0283377 0.6105451 0.4641338 1.1617024e-38
1.0256978 0.61036706 0.46410316 1.1617017e-38
1.0230579 0.61018908 0.46407253 1.1617009e-38
1.020418 0.61001104 0.46404201 1.1525181e-38
1.0177783 0.60983306 0.46401137 1.1341517e-38
1.0151384 0.60965508 0.46398073 1.1066006e-38
1.0124986 0.60947704 0.46395022 1.1249675e-38
1.0098587 0.60929906 0.46391958 1.134115e-38
1.0072188 0.60912108 0.46388906 1.134079e-38
1.0045789 0.60894305 0.46385843 1.134079e-38
1.0019391 0.60876507 0.46382779 1.1340431e-38
0.99929929 0.60858703 0.46379727 1.134043e-38
0.9966594 0.60840905 0.46376663 1.1340428e-38
0.99401951 0.60823101 0.46373612 1.1248947e-38
0.99137974 0.60805303 0.46370548 1.1156749e-38
0.98873985 0.60787505 0.46367484 1.1065275e-38
1.1100934 0.61114699 0.45930403 1.2631161e-38
1.1074649 0.61096978 0.45927352 1.2263465e-38
1.1048365 0.61079252 0.45924312 1.226311e-38
1.0999212 0.60856521 0.45426899 1.2354586e-38
1.0973022 0.60838866 0.45423871 1.2354583e-38
1.0946834 0.60821205 0.45420831 1.2446061e-38
1.0920645 0.60803545 0.45417792 1.226275e-38
1.0894456 0.6078589 0.45414764 1.2170915e-38
1.0868267 0.60768229 0.45411724 1.2079078e-38
1.0842078 0.60750568 0.45408696 1.1986886e-38
1.0789247 0.60487449 0.44812506 1.2078365e-38
1.07897 0.60715252 0.45402628 1.2170197e-38
1.0785522 0.60902023 0.45893854 1.2078359e-38
1.0759239 0.60884297 0.45890802 1.2078359e-38
1.0759139 0.61111724 0.46480852 1.1986165e-38
1.0732741 0.61093926 0.46477789 1.1893971e-38
1.0706342 0.61076123 0.46474737 1.1985805e-38
1.0679945 0.61058325 0.46471673 1.2077286e-38
1.0674984 0.61244565 0.46962816 1.1985453e-38
1.0627147 0.61022723 0.46465558 1.1985446e-38
1.0600748 0.61004925 0.46462494 1.1893962e-38
1.0574349 0.60987121 0.46459442 1.1893962e-38
1.0547951 0.60969323 0.46456379 1.1802125e-38
1.0496397 0.60707062 0.45860344 1.1802131e-38
1.0495154 0.60933721 0.46450263 1.1802136e-38
1.0468755 0.60915923 0.464472 1.1893602e-38
1.0442356 0.60898119 0.46444136 1.1893591e-38
1.0391259 0.60636169 0.45848161 1.1985432e-38
1.0389559 0.60862523 0.4643802 1.1893243e-38
1.0363162 0.60844719 0.46434969 1.1801048e-38
1.0336763 0.60826921 0.46431905 1.1709211e-38
1.0310364 0.60809118 0.46428841 1.1709574e-38
1.0283965 0.6079132 0.4642579 1.1617384e-38
1.0257567 0.60773516 0.46422726 1.1525537e-38
1.0231168 0.60755718 0.46419662 1.1525167e-38
1.0204769 0.6073792 0.4641661 1.1525181e-38
1.017837 0.60720116 0.46413547 1.1433358e-38
1.0151973 0.60702318 0.46410495 1.125004e-38
1.0125574 0.60684514 0.46407431 1.1341511e-38
1.0099175 0.60666716 0.46404368 1.1432987e-38
1.0072777 0.60648918 0.46401316 1.1432625e-38
1.0046378 0.60631114 0.46398252 1.1432625e-38
1.0019979 0.60613316 0.463952 1.1432267e-38
0.99935806 0.60595512 0.46392137 1.134043e-38
0.99671817 0.60577714 0.46389073 1.1340428e-38
0.9940784 0.60559911 0.46386021 1.1340786e-38
0.99143851 0.60542113 0.46382958 1.1157112e-38
0.98879874 0.60524315 0.46379894 1.1065278e-38
0.98615885 0.60506511 0.46376842 1.1249309e-38
1.1129308 0.61097741 0.46536094 1.2630805e-38
1.1075234 0.60834926 0.45939714 1.2263466e-38
1.1048951 0.608172 0.45936662 1.2263469e-38
1.0999795 0.60595423 0.45439214 1.226311e-38
1.0946274 0.60332984 0.44842905 1.2263109e-38
1.09202 0.603154 0.44839877 1.2263113e-38
1.0894125 0.60297817 0.44836861 1.2262759e-38
1.0895039 0.60524791 0.45427078 1.2170919e-38
1.086885 0.60507131 0.45424038 1.1987245e-38
1.0842662 0.6048947 0.4542101 1.1803215e-38
1.0789826 0.60227489 0.44824773 1.1986528e-38
1.0763752 0.60209912 0.44821745 1.2170196e-38
1.0786109 0.60639966 0.45906204 1.2169836e-38
1.0759825 0.60622245 0.45903164 1.2078003e-38
1.0759727 0.60848534 0.46493262 1.2078007e-38
1.0733329 0.60830736 0.46490198 1.2078003e-38
1.070693 0.60812938 0.46487147 1.2077999e-38
1.0680532 0.60795134 0.46484083 1.2077637e-38
1.0654134 0.60777336 0.46481031 1.198544e-38
1.0627735 0.60759532 0.46477968 1.1893962e-38
1.0601336 0.60741735 0.46474904 1.1893961e-38
1.0574937 0.60723931 0.46471852 1.1893961e-38
1.0548539 0.60706133 0.46468788 1.1893962e-38
1.0496982 0.60445011 0.45872706 1.1893966e-38
1.0495741 0.60670531 0.46462673 1.189361e-38
1.0469342 0.60652733 0.46459609 1.1893605e-38
1.0442944 0.60634929 0.46456558 1.1985435e-38
1.0416546 0.60617131 0.46453494 1.1985079e-38
1.0390147 0.60599333 0.4645043 1.1893246e-38
1.0363749 0.60581529 0.46447378 1.1709215e-38
1.033735 0.60563731 0.46444315 1.1709215e-38
1.0310951 0.60545927 0.46441263 1.1709574e-38
1.0284553 0.60528129 0.46438199 1.1525904e-38
1.0258155 0.60510325 0.46435136 1.1341867e-38
1.0231756 0.60492527 0.46432084 1.1433339e-38
1.0205357 0.6047473 0.4642902 1.1525182e-38
1.0178958 0.60456926 0.46425956 1.1525191e-38
1.015256 0.60439128 0.46422905 1.1433351e-38
1.0126162 0.60421324 0.46419841 1.1524824e-38
1.0099763 0.60403526 0.46416789 1.1524822e-38
1.0073365 0.60385728 0.46413726 1.1524462e-38
1.0046966 0.60367924 0.46410662 1.1524462e-38
1.0020567 0.60350126 0.4640761 1.1432268e-38
0.99941683 0.60332322 0.46404546 1.1340431e-38
0.99450141 0.60072821 0.45808738 1.1340431e-38
0.99413717 0.6029672 0.46398431 1.1340786e-38
0.98924458 0.60037374 0.45802647 1.1248947e-38
0.98661608 0.60019654 0.45799607 1.1065639e-38
0.97804117 0.59358215 0.44216055 1.1250032e-38
1.1156294 0.60852355 0.46551567 1.3092498e-38
1.1129895 0.60834551 0.46548504 1.272336e-38
1.1052756 0.60369647 0.45457596 1.2354944e-38
1.1049535 0.60555154 0.45949024 1.2355305e-38
1.1000378 0.60334325 0.45451528 1.2355306e-38
1.0946856 0.60073024 0.4485516 1.2355306e-38
1.0920781 0.60055441 0.44852144 1.2355313e-38
1.0894706 0.60037857 0.44849116 1.235496e-38
1.0895622 0.60263693 0.45439392 1.2354596e-38
1.0869434 0.60246032 0.45436352 1.2262753e-38
1.0843245 0.60228372 0.45433313 1.2170557e-38
1.0817056 0.60210717 0.45430285 1.2170555e-38
1.0790868 0.60193056 0.45427245 1.2262749e-38
1.0764678 0.60175395 0.45424217 1.2170194e-38
1.076041 0.60360193 0.45915526 1.2169843e-38
1.0760316 0.60585344 0.46505672 1.2262043e-38
1.0733917 0.60567546 0.4650262 1.2262394e-38
1.0707518 0.60549748 0.46499556 1.2169834e-38
1.068112 0.60531944 0.46496493 1.2169108e-38
1.0654721 0.60514146 0.46493441 1.2077622e-38
1.0628322 0.60496342 0.46490377 1.2077626e-38
1.0601925 0.60478544 0.46487325 1.2077629e-38
1.0575526 0.6046074 0.46484262 1.207799e-38
1.0549127 0.60442942 0.46481198 1.1985799e-38
1.0497568 0.60182965 0.45885056 1.1985442e-38
1.049633 0.60407341 0.46475083 1.1893608e-38
1.0469931 0.60389543 0.46472019 1.1801413e-38
1.0443532 0.60371739 0.46468967 1.1893249e-38
1.0417135 0.60353941 0.46465904 1.2076561e-38
1.0390736 0.60336143 0.46462852 1.1984724e-38
1.0364337 0.60318339 0.46459788 1.1892889e-38
1.0337938 0.60300541 0.46456724 1.1892889e-38
1.031154 0.60282737 0.46453673 1.1984721e-38
1.0285141 0.60264939 0.46450609 1.1709212e-38
1.0258743 0.60247135 0.46447545 1.1525541e-38
1.0232344 0.60229337 0.46444494 1.1616658e-38
1.0205945 0.60211539 0.4644143 1.1708139e-38
1.0179547 0.60193735 0.46438378 1.1616665e-38
1.0153148 0.60175937 0.46435314 1.1616662e-38
1.012675 0.60158134 0.46432251 1.1524824e-38
1.0100352 0.60140336 0.46429199 1.1524824e-38
1.0073953 0.60122538 0.46426135 1.1524464e-38
1.0047554 0.60104734 0.46423072 1.1524105e-38
1.0021155 0.60086936 0.4642002 1.1432268e-38
0.99947572 0.60069132 0.46416956 1.1340432e-38
0.99683583 0.60051334 0.46413904 1.1340432e-38
0.99419594 0.6003353 0.46410841 1.1340787e-38
0.98930311 0.59775329 0.45815009 1.1340783e-38
0.98069698 0.59116727 0.44231278 1.134079e-38
0.97809905 0.59099209 0.44228262 1.143299e-38
1.1105717 0.60143864 0.45475978 1.3182897e-38
1.1079528 0.60126203 0.4547295 1.2814835e-38
1.1053339 0.60108542 0.4546991 1.2355659e-38
1.1050122 0.60293102 0.45961386 1.2447139e-38
1.1000962 0.60073227 0.45463842 1.2447496e-38
1.0974772 0.60055566 0.45460802 1.2447137e-38
1.0948584 0.60037911 0.45457774 1.2447143e-38
1.0922396 0.6002025 0.45454735 1.2538267e-38
1.0896206 0.60002589 0.45451695 1.2538261e-38
1.0892417 0.60186762 0.45943111 1.2538257e-38
1.0843828 0.59967273 0.45445627 1.2446418e-38
1.081764 0.59949613 0.45442599 1.2354223e-38
1.0791451 0.59931952 0.45439559 1.2262387e-38
1.0765262 0.59914297 0.45436531 1.2262389e-38
1.0760996 0.60098147 0.45927876 1.2262031e-38
1.0734712 0.60080421 0.45924836 1.2353868e-38
1.0734506 0.60304356 0.4651503 1.2445701e-38
1.0708107 0.60286558 0.46511966 1.2353863e-38
1.0681709 0.6026876 0.46508914 1.2169829e-38
1.065531 0.60250956 0.46505851 1.2169826e-38
1.0628911 0.60233158 0.46502787 1.2169469e-38
1.0602512 0.60215354 0.46499735 1.216947e-38
1.0576113 0.60197556 0.46496671 1.2169476e-38
1.0549716 0.60179758 0.46493608 1.2169481e-38
1.0498154 0.59920913 0.45897418 1.2077284e-38
1.0496918 0.60144156 0.46487492 1.1893253e-38
1.0470519 0.60126352 0.46484441 1.1617745e-38
1.044412 0.60108554 0.46481377 1.1892892e-38
1.0417722 0.6009075 0.46478313 1.2168399e-38
1.0366732 0.59832299 0.45882195 1.2076564e-38
1.0340447 0.59814572 0.45879143 1.1984727e-38
1.0314164 0.59796852 0.45876104 1.2076561e-38
1.0312128 0.60019553 0.46466082 1.2168392e-38
1.0285729 0.60001749 0.46463019 1.1984358e-38
1.0259331 0.59983951 0.46459967 1.1708853e-38
1.0232933 0.59966153 0.46456903 1.1799255e-38
1.0206534 0.59948349 0.4645384 1.1891451e-38
1.0180135 0.59930551 0.46450788 1.1799617e-38
1.0153737 0.59912747 0.46447724 1.1708139e-38
1.0127338 0.59894949 0.4644466 1.1616302e-38
1.0100939 0.59877145 0.46441609 1.1524465e-38
1.0074542 0.59859347 0.46438545 1.1524105e-38
1.0048143 0.59841549 0.46435493 1.1524105e-38
1.0021744 0.59823745 0.4643243 1.1432269e-38
0.99953449 0.59805948 0.46429366 1.1340435e-38
0.9968946 0.59788144 0.46426314 1.1340438e-38
0.99425483 0.59770346 0.4642325 1.1340432e-38
0.9893617 0.59513277 0.45827359 1.1432262e-38
0.98075485 0.58857721 0.44243485 1.1524461e-38
0.97815692 0.58840203 0.44240481 1.1616661e-38
1.11063 0.59882766 0.45488292 1.3185767e-38
1.1080112 0.59865111 0.45485252 1.2724432e-38
1.1053922 0.5984745 0.45482224 1.2264181e-38
1.1050707 0.60031056 0.45973736 1.2356018e-38
1.1001545 0.59812129 0.45476156 1.2447852e-38
1.0948017 0.59553105 0.44879681 1.244749e-38
1.0921943 0.59535521 0.44876653 1.2447496e-38
1.0922978 0.59759152 0.45467049 1.2447142e-38
1.0896789 0.59741497 0.45464009 1.2538615e-38
1.08706 0.59723836 0.45460981 1.2538253e-38
1.0844412 0.59706175 0.45457941 1.2630087e-38
1.0818222 0.5968852 0.45454913 1.2354219e-38
1.0792034 0.5967086 0.45451874 1.2169833e-38
1.0787865 0.59853822 0.45943278 1.2170552e-38
1.076158 0.59836096 0.45940238 1.2262385e-38
1.0735297 0.59818375 0.45937186 1.2354216e-38
1.0735093 0.60041165 0.46527439 1.2445695e-38
1.0708694 0.60023367 0.46524376 1.2262026e-38
1.0682297 0.60005569 0.46521324 1.2078356e-38
1.0655898 0.59987766 0.4651826 1.2169834e-38
1.0629499 0.59969968 0.46515197 1.2260594e-38
1.06031 0.59952164 0.46512145 1.2169115e-38
1.0576701 0.59934366 0.46509081 1.2169124e-38
1.0550303 0.59916568 0.46506029 1.2077297e-38
1.0498738 0.59658867 0.4590978 1.2076574e-38
1.0497506 0.59880966 0.46499902 1.1893256e-38
1.0471107 0.59863162 0.4649685 1.1801778e-38
1.0444708 0.59845364 0.46493787 1.1893252e-38
1.0393603 0.59587973 0.45897597 1.2076567e-38
1.0367317 0.59570247 0.45894545 1.1985091e-38
1.0320632 0.59352994 0.45397252 1.1893253e-38
1.0294445 0.59335339 0.45394212 1.1984726e-38
1.0288465 0.5951708 0.45885414 1.2076916e-38
1.0262182 0.59499353 0.45882362 1.189288e-38
1.0235896 0.59481633 0.45879322 1.1709214e-38
1.0209613 0.59463906 0.45876271 1.1800334e-38
1.0183327 0.59446186 0.45873231 1.1891452e-38
1.0157044 0.59428459 0.45870179 1.1799974e-38
1.0130761 0.59410739 0.45867139 1.1708139e-38
1.0127926 0.59631759 0.46457082 1.1616661e-38
1.0101527 0.59613955 0.46454018 1.1524824e-38
1.0075129 0.59596157 0.46450955 1.1524464e-38
1.004873 0.59578359 0.46447903 1.1432629e-38
1.0022331 0.59560555 0.46444839 1.1340794e-38
0.99730545 0.59304398 0.45848864 1.1248963e-38
0.99467707 0.59286678 0.45845813 1.1248965e-38
0.99204862 0.59268951 0.45842773 1.1340435e-38
0.98528862 0.58814663 0.44752771 1.1340428e-38
0.98081273 0.58598709 0.44255704 1.1432268e-38
0.9782148 0.58581191 0.442527 1.1524825e-38
1.1106884 0.59621668 0.45500606 1.3091063e-38
1.1080695 0.59604007 0.45497566 1.2632238e-38
1.1054506 0.59586346 0.45494539 1.2172347e-38
1.1051292 0.59769005 0.45986098 1.2264185e-38
1.1002128 0.5955103 0.45488471 1.2356016e-38
1.0948598 0.59293145 0.44891936 1.2355655e-38
1.0922524 0.59275568 0.4488892 1.2355659e-38
1.0896449 0.59257984 0.44885892 1.2447499e-38
1.0870374 0.59240401 0.44882876 1.2446779e-38
1.0871184 0.59462732 0.45473295 1.2630088e-38
1.0844995 0.59445077 0.45470256 1.2721563e-38
1.0818806 0.59427416 0.45467228 1.2445697e-38
1.0792618 0.59409755 0.45464188 1.2078715e-38
1.0766428 0.59392101 0.45461148 1.2170552e-38
1.0762167 0.5957405 0.45952588 1.217055e-38
1.0735883 0.59556323 0.45949548 1.2262385e-38
1.0709598 0.59538603 0.45946497 1.2353861e-38
1.0683314 0.59520876 0.45943457 1.217019e-38
1.0635483 0.59303802 0.45445973 1.1986522e-38
1.0609295 0.59286141 0.45442945 1.2169837e-38
1.060446 0.59467709 0.45934314 1.2260954e-38
1.0603689 0.59688973 0.46524554 1.2168758e-38
1.057729 0.59671175 0.46521491 1.2077286e-38
1.0550891 0.59653378 0.46518439 1.2076931e-38
1.0499325 0.59396815 0.4592213 1.2076927e-38
1.0473039 0.59379095 0.45919091 1.1985447e-38
1.0446756 0.59361368 0.45916039 1.1893609e-38
1.0420471 0.59343648 0.45912999 1.1985084e-38
1.0394187 0.59325922 0.45909947 1.1985084e-38
1.0367903 0.59308201 0.45906907 1.1893609e-38
1.0341618 0.59290475 0.45903856 1.1709578e-38
1.0295029 0.59074235 0.45406526 1.1800695e-38
1.0313305 0.59493172 0.46490902 1.1892886e-38
1.0262766 0.59237307 0.45894724 1.1801408e-38
1.0236483 0.59219581 0.45891672 1.1709214e-38
1.0210197 0.5920186 0.45888633 1.1801049e-38
1.0183914 0.59184134 0.45885581 1.1800332e-38
1.0157629 0.59166414 0.45882541 1.1708137e-38
1.0131345 0.59148687 0.45879489 1.1616661e-38
1.0128515 0.59368569 0.46469492 1.1616662e-38
1.0102116 0.59350765 0.46466428 1.1524824e-38
1.0075717 0.59332967 0.46463376 1.1432987e-38
1.0049318 0.59315169 0.46460313 1.1341151e-38
1.0022919 0.59297365 0.46457249 1.1249316e-38
0.99965215 0.59279567 0.46454197 1.1065285e-38
0.99701226 0.59261763 0.46451133 1.1157477e-38
0.99210715 0.59006906 0.45855123 1.1248953e-38
0.98947877 0.58989179 0.45852083 1.1248234e-38
0.9808706 0.58339703 0.44267923 1.1248597e-38
0.97827268 0.58322185 0.44264907 1.1524826e-38
1.1107467 0.59360564 0.45512921 1.3276888e-38
1.1081278 0.59342909 0.45509881 1.2815909e-38
1.1055089 0.59325248 0.45506853 1.2355302e-38
1.10289 0.59307587 0.45503813 1.24475e-38
1.1002712 0.59289926 0.45500785 1.2539689e-38
1.0976522 0.59272271 0.45497745 1.2447489e-38
1.0923104 0.59015608 0.44901174 1.2447493e-38
1.0924146 0.5923695 0.45491678 1.2447139e-38
1.0897956 0.59219295 0.45488638 1.2446779e-38
1.0871768 0.59201634 0.4548561 1.2446417e-38
1.0845578 0.59183973 0.4548257 1.2537894e-38
1.081939 0.59166318 0.4547953 1.235458e-38
1.0793201 0.59148657 0.45476502 1.2262745e-38
1.0767012 0.59130996 0.45473462 1.2262386e-38
1.0740823 0.59113336 0.45470434 1.2262387e-38
1.0736468 0.59294277 0.4596191 1.2353864e-38
1.0710183 0.59276551 0.45958859 1.2537175e-38
1.0683899 0.59258831 0.45955819 1.2353861e-38
1.0636067 0.59042704 0.45458287 1.2170194e-38
1.0609878 0.59025043 0.45455259 1.2169839e-38
1.0583689 0.59007382 0.45452219 1.2261314e-38
1.05575 0.58989727 0.45449191 1.2169117e-38
1.0552478 0.59170216 0.45940584 1.2077281e-38
1.0526195 0.5915249 0.45937544 1.2077281e-38
1.049991 0.59134769 0.45934492 1.207728e-38
1.0473626 0.59117043 0.45931453 1.1985802e-38
1.0447342 0.59099323 0.45928401 1.1894324e-38
1.0421057 0.59081596 0.45925361 1.198544e-38
1.0394773 0.59063876 0.45922309 1.2076916e-38
1.0368488 0.59046149 0.45919257 1.1893602e-38
1.0342205 0.59028429 0.45916218 1.1801768e-38
1.0295612 0.58813137 0.45418841 1.1893246e-38
1.0289636 0.58992982 0.45910126 1.1984364e-38
1.0263352 0.58975255 0.45907074 1.1892529e-38
1.0237068 0.58957535 0.45904034 1.180069e-38
1.0210783 0.58939809 0.45900983 1.1800687e-38
1.0184499 0.58922088 0.45897943 1.1800689e-38
1.0158215 0.58904362 0.45894891 1.1708853e-38
1.0131931 0.58886641 0.45891851 1.1708496e-38
1.0129102 0.59105378 0.46481901 1.1708497e-38
1.0102704 0.59087574 0.46478838 1.1708137e-38
1.0076306 0.59069777 0.46475786 1.1616299e-38
1.0049907 0.59051979 0.46472722 1.1524822e-38
1.0023508 0.59034175 0.46469671 1.1432627e-38
0.99742258 0.58780301 0.45873576 1.1340067e-38
0.99479419 0.5876258 0.45870525 1.1340777e-38
0.99216574 0.58744854 0.45867485 1.1432617e-38
0.98953736 0.58727133 0.45864433 1.1431904e-38
0.98092848 0.58080691 0.4428013 1.1523029e-38
0.97833055 0.58063173 0.44277126 1.1617381e-38
1.110805 0.59099466 0.45525235 1.3366214e-38
1.1081862 0.59081811 0.45522195 1.2906669e-38
1.1078749 0.59262633 0.46013862 1.2447142e-38
1.1029484 0.59046489 0.45516127 1.2538984e-38
1.1003296 0.59028828 0.45513088 1.2631171e-38
1.0977106 0.59011173 0.4551006 1.253933e-38
1.0950918 0.58993512 0.4550702 1.2447496e-38
1.0924729 0.58975852 0.45503992 1.2446781e-38
1.089854 0.58958197 0.45500952 1.2354942e-38
1.0872351 0.58940536 0.45497924 1.2354579e-38
1.0846162 0.58922875 0.45494884 1.2262743e-38
1.0819973 0.5890522 0.45491844 1.2354939e-38
1.0793784 0.58887559 0.45488816 1.235458e-38
1.0767596 0.58869898 0.45485777 1.2354221e-38
1.0741405 0.58852237 0.45482749 1.2353863e-38
1.0737054 0.59032226 0.45974261 1.2536816e-38
1.0689029 0.58816922 0.45476669 1.2629008e-38
1.0662839 0.58799261 0.45473641 1.2445334e-38
1.063665 0.58781606 0.45470601 1.226203e-38
1.0610461 0.58763945 0.45467573 1.2261681e-38
1.0584273 0.58746284 0.45464534 1.2169481e-38
1.0558083 0.58728629 0.45461494 1.207764e-38
1.0531895 0.58710968 0.45458466 1.1985805e-38
1.0526779 0.58890444 0.45949894 1.1985805e-38
1.0500495 0.58872718 0.45946854 1.1985806e-38
1.0474211 0.58854997 0.45943803 1.1985807e-38
1.0447927 0.58837271 0.45940763 1.1893968e-38
1.0421643 0.5881955 0.45937711 1.1985083e-38
1.0395359 0.58801824 0.45934671 1.2076917e-38
1.0369074 0.58784103 0.45931619 1.1985082e-38
1.034279 0.58766377 0.4592858 1.1893606e-38
1.0296195 0.58552039 0.45431155 1.1985442e-38
1.0290222 0.5873093 0.45922488 1.1984724e-38
1.0263938 0.5871321 0.45919436 1.1892173e-38
1.0237653 0.58695483 0.45916396 1.1800692e-38
1.0211369 0.58677763 0.45913345 1.1800329e-38
1.0185084 0.58660036 0.45910305 1.1800687e-38
1.0158801 0.58642316 0.45907253 1.1801046e-38
1.0132517 0.58624589 0.45904213 1.1708855e-38
1.012969 0.58842188 0.46494311 1.1800333e-38
1.0103291 0.58824384 0.46491259 1.189181e-38
1.0076894 0.58806586 0.46488196 1.1799616e-38
1.0050495 0.58788788 0.46485132 1.1615942e-38
1.0024096 0.58770984 0.4648208 1.1615939e-38
0.99976969 0.58753186 0.46479017 1.1524098e-38
0.9971298 0.58735383 0.46475953 1.1524092e-38
0.99222428 0.58482808 0.45879847 1.1523739e-38
0.98959589 0.58465081 0.45876795 1.1614864e-38
0.98696738 0.58447361 0.45873743 1.170742e-38
0.98024797 0.57999623 0.44783503 1.1801053e-38
0.97764051 0.57982039 0.44780487 1.1891052e-38
1.1108634 0.58838367 0.45537549 1.3461281e-38
1.1082447 0.58820713 0.45534509 1.2999582e-38
1.1056256 0.58803052 0.4553147 1.2538981e-38
1.1030068 0.58785391 0.45528442 1.2630827e-38
1.1003879 0.5876773 0.45525402 1.2722655e-38
1.095034 0.58513266 0.44928712 1.2630811e-38
1.0924265 0.58495688 0.44925696 1.2539334e-38
1.0925312 0.58714753 0.45516306 1.2539334e-38
1.0899123 0.58697098 0.45513266 1.2539329e-38
1.0872934 0.58679438 0.45510226 1.2447127e-38
1.0846746 0.58661777 0.45507199 1.2446772e-38
1.0820556 0.58644122 0.45504159 1.235458e-38
1.0794368 0.58626461 0.45501131 1.2354221e-38
1.0768179 0.586088 0.45498091 1.2354221e-38
1.074199 0.58591139 0.45495051 1.2445698e-38
1.0715802 0.58573484 0.45492023 1.2445338e-38
1.0689611 0.58555824 0.45488983 1.2536811e-38
1.0663424 0.58538163 0.45485955 1.244533e-38
1.0637233 0.58520508 0.45482916 1.2262031e-38
1.0611045 0.58502847 0.45479888 1.2169851e-38
1.0584856 0.58485186 0.45476848 1.2169125e-38
1.0558667 0.58467531 0.45473808 1.207764e-38
1.0532479 0.5844987 0.4547078 1.1986163e-38
1.0527365 0.58628392 0.45962256 1.1986163e-38
1.0501082 0.58610666 0.45959204 1.2078003e-38
1.0474796 0.58592945 0.45956165 1.1985813e-38
1.0448513 0.58575219 0.45953113 1.1985807e-38
1.0422229 0.58557498 0.45950073 1.1985442e-38
1.0395944 0.58539772 0.45947021 1.1985443e-38
1.036966 0.58522052 0.45943981 1.1893608e-38
1.0343375 0.58504325 0.4594093 1.1893966e-38
1.0317092 0.58486605 0.4593789 1.1893608e-38
1.0315069 0.58703601 0.46528143 1.1984727e-38
1.028867 0.58685803 0.46525079 1.1892533e-38
1.0262271 0.58668 0.46522015 1.1800693e-38
1.0235872 0.58650202 0.46518964 1.1800687e-38
1.0185671 0.58397985 0.45922655 1.1801046e-38
1.0159386 0.58380264 0.45919615 1.1800686e-38
1.0133102 0.58362538 0.45916563 1.1708495e-38
1.0130279 0.58578998 0.46506721 1.1708139e-38
1.010388 0.585612 0.46503669 1.1707424e-38
1.0077481 0.58543402 0.46500605 1.1707784e-38
1.0051082 0.58525598 0.46497542 1.1615586e-38
1.0024683 0.585078 0.4649449 1.1707416e-38
0.9975397 0.58256197 0.45898288 1.170777e-38
0.99718869 0.58472198 0.46488374 1.1615572e-38
0.99228287 0.58220756 0.45892197 1.1523027e-38
0.98965448 0.5820303 0.45889157 1.1523393e-38
0.98702598 0.58185309 0.45886105 1.161523e-38
0.98439759 0.58167583 0.45883065 1.1709219e-38
1.1106204 0.58756256 0.46041626 1.3091417e-38
1.1079919 0.5873853 0.46038574 1.2631171e-38
1.1030651 0.58524293 0.45540756 1.2722656e-38
1.1004462 0.58506632 0.45537716 1.2722652e-38
1.0978273 0.58488971 0.45534688 1.2722289e-38
1.0924847 0.58235729 0.4493795 1.2630815e-38
1.0925896 0.58453655 0.45528609 1.2723012e-38
1.0899706 0.58435994 0.45525581 1.2722647e-38
1.0873518 0.58418334 0.45522541 1.2630804e-38
1.0869646 0.58596742 0.46014208 1.2538611e-38
1.084336 0.58579022 0.46011168 1.2445702e-38
1.0794952 0.58365357 0.45513445 1.2354224e-38
1.0768762 0.58347702 0.45510405 1.2445701e-38
1.0742574 0.58330041 0.45507365 1.24457e-38
1.0738225 0.58508128 0.45998985 1.2445339e-38
1.0690196 0.58294725 0.45501298 1.2445697e-38
1.0664006 0.58277065 0.4549827 1.2353501e-38
1.0637817 0.58259404 0.4549523 1.2261673e-38
1.0611629 0.58241743 0.4549219 1.2170203e-38
1.0585439 0.58224088 0.45489162 1.2078e-38
1.0559251 0.58206427 0.45486122 1.2077992e-38
1.0554235 0.58384067 0.45977658 1.1986158e-38
1.0527951 0.5836634 0.45974618 1.2077996e-38
1.0501666 0.5834862 0.45971566 1.2077999e-38
1.0475383 0.58330894 0.45968527 1.2077643e-38
1.0449098 0.58313173 0.45965475 1.2077642e-38
1.0422814 0.58295447 0.45962423 1.1985446e-38
1.0396531 0.58277726 0.45959383 1.1893609e-38
1.0370245 0.5826 0.45956331 1.1893608e-38
1.0343962 0.58242279 0.45953292 1.1801774e-38
1.0317677 0.58224553 0.4595024 1.1893252e-38
1.0291393 0.58206832 0.459472 1.1984728e-38
1.0289258 0.58422613 0.46537489 1.1892534e-38
1.026286 0.58404809 0.46534437 1.1709218e-38
1.0236461 0.58387011 0.46531373 1.180069e-38
1.0210062 0.58369213 0.4652831 1.1801043e-38
1.0183663 0.58351409 0.46525258 1.1800322e-38
1.0157266 0.58333611 0.46522194 1.1708133e-38
1.0130867 0.58315808 0.4651913 1.1615943e-38
1.008112 0.58065045 0.45922834 1.1524468e-38
1.0054835 0.58047318 0.45919782 1.1615946e-38
1.0028551 0.58029598 0.45916742 1.1615584e-38
1.0025272 0.5824461 0.465069 1.1798895e-38
0.99759823 0.57994151 0.4591065 1.1891085e-38
0.99496984 0.57976431 0.45907599 1.170741e-38
0.9923414 0.57958704 0.45904559 1.1431549e-38
0.98971301 0.57940984 0.45901507 1.1431553e-38
0.98708451 0.57923257 0.45898467 1.1431915e-38
0.98445612 0.57905537 0.45895416 1.1708859e-38
0.98182768 0.5788781 0.45892376 1.1889627e-38
0.97919929 0.5787009 0.45889324 7.1945031e-39
1.1106789 0.58494204 0.46053976 1.3183967e-38
1.1080505 0.58476484 0.46050936 1.2814838e-38
1.105422 0.58458757 0.46047884 1.2723008e-38
1.1005046 0.58245534 0.4555003 1.2723008e-38
1.0978856 0.58227873 0.45546991 1.2722649e-38
1.0925429 0.57975769 0.44950217 1.2722655e-38
1.0926479 0.58192557 0.45540923 1.2722659e-38
1.090029 0.58174896 0.45537895 1.2722293e-38
1.0874101 0.58157235 0.45534855 1.2630451e-38
1.0847912 0.5813958 0.45531827 1.2630452e-38
1.0821723 0.5812192 0.45528787 1.2538258e-38
1.0795534 0.58104259 0.45525748 1.2446063e-38
1.0769346 0.58086604 0.4552272 1.2537538e-38
1.0765095 0.58263803 0.46014386 1.2537178e-38
1.073881 0.58246076 0.46011335 1.2445698e-38
1.0712526 0.58228356 0.46008295 1.2446417e-38
1.0686241 0.58210629 0.46005243 1.2353865e-38
1.06384 0.57998306 0.45507544 1.2353149e-38
1.0612211 0.57980645 0.45504504 1.2262031e-38
1.0586023 0.5796299 0.45501477 1.2170546e-38
1.0559833 0.57945329 0.45498437 1.2170179e-38
1.055482 0.58122015 0.4599002 1.2078348e-38
1.0528536 0.58104295 0.45986968 1.2078351e-38
1.0502253 0.58086568 0.45983928 1.2078352e-38
1.0475967 0.58068848 0.45980877 1.2169471e-38
1.0449684 0.58051121 0.45977837 1.2260952e-38
1.0423399 0.58033401 0.45974785 1.2077284e-38
1.0397115 0.58015674 0.45971745 1.1985446e-38
1.037083 0.57997954 0.45968693 1.1985443e-38
1.0344546 0.57980227 0.45965654 1.1985805e-38
1.0318263 0.57962507 0.45962602 1.1985089e-38
1.0316244 0.58177221 0.46552962 1.2076565e-38
1.0289845 0.58159423 0.46549898 1.1801416e-38
1.0263448 0.58141619 0.46546847 1.1617742e-38
1.0237049 0.58123821 0.46543783 1.1709574e-38
1.021065 0.58106023 0.46540719 1.1801401e-38
1.0184251 0.58088219 0.46537668 1.1708839e-38
1.0157853 0.58070421 0.46534604 1.1708129e-38
1.0107989 0.57820719 0.45938236 1.1616659e-38
1.0081705 0.57802993 0.45935196 1.1617019e-38
1.005542 0.57785273 0.45932144 1.1616302e-38
1.0029136 0.57767546 0.45929092 1.1615584e-38
1.0002851 0.57749826 0.45926052 1.1707779e-38
0.99765676 0.57732099 0.45923001 1.1799611e-38
0.99502838 0.57714379 0.45919961 1.1615577e-38
0.99239993 0.57696658 0.45916909 1.1523383e-38
0.98977154 0.57678932 0.45913869 1.1431906e-38
0.98714304 0.57661211 0.45910817 1.1431553e-38
0.98451465 0.57643485 0.45907778 1.1708499e-38
0.98188621 0.57625765 0.45904726 1.1892859e-38
1.1135188 0.58465844 0.46660203 1.3275092e-38
1.108109 0.58214432 0.46063298 1.2907035e-38
1.1031818 0.5800209 0.45565385 1.2814483e-38
1.1005629 0.5798443 0.45562345 1.2631171e-38
1.097944 0.57966775 0.45559305 1.2722649e-38
1.0926008 0.57715809 0.44962472 1.2722652e-38
1.0927062 0.57931453 0.45553237 1.2722298e-38
1.0900873 0.57913798 0.45550209 1.2630459e-38
1.0874684 0.57896137 0.45547169 1.2630098e-38
1.0848496 0.57878476 0.4554413 1.2630458e-38
1.0822306 0.57860821 0.45541102 1.2630459e-38
1.0796118 0.57843161 0.45538062 1.2537902e-38
1.0769929 0.578255 0.45535034 1.2629017e-38
1.074374 0.57807839 0.45531994 1.2629013e-38
1.0739396 0.57984024 0.46023697 1.2537532e-38
1.0713111 0.57966304 0.46020645 1.2354227e-38
1.0686827 0.57948577 0.46017605 1.2353875e-38
1.0638983 0.57737207 0.45519859 1.2353871e-38
1.0612795 0.57719547 0.45516819 1.2353867e-38
1.0586606 0.57701886 0.45513791 1.2262027e-38
1.0581691 0.5787769 0.46005422 1.2262022e-38
1.0555406 0.57859963 0.4600237 1.2170187e-38
1.0529122 0.57842243 0.4599933 1.2170187e-38
1.0502838 0.57824516 0.45996279 1.2077996e-38
1.0476553 0.57806796 0.45993239 1.2261311e-38
1.045027 0.57789069 0.45990187 1.2352793e-38
1.0423985 0.57771349 0.45987147 1.2260603e-38
1.0397701 0.57753623 0.45984095 1.2077286e-38
1.0371416 0.57735902 0.45981055 1.2169117e-38
1.0324717 0.57525295 0.4548344 1.2169118e-38
1.0318849 0.57700455 0.45974964 1.2168761e-38
1.0316833 0.57914031 0.46565372 1.2077283e-38
1.0290434 0.57896233 0.4656232 1.1802135e-38
1.0264035 0.57878429 0.46559256 1.1526266e-38
1.0237637 0.57860631 0.46556193 1.1709575e-38
1.0211238 0.57842833 0.46553141 1.1801046e-38
1.018484 0.57825029 0.46550077 1.1708846e-38
1.0158441 0.57807231 0.46547014 1.1617015e-38
1.0132043 0.57789427 0.46543962 1.1708855e-38
1.008229 0.57540941 0.45947546 1.1708856e-38
1.0056007 0.57523221 0.45944506 1.17085e-38
1.0029721 0.57505494 0.45941454 1.1616663e-38
1.0003438 0.57487774 0.45938414 1.1617021e-38
0.99771535 0.57470047 0.45935363 1.16163e-38
0.99508697 0.57452327 0.45932323 1.1615221e-38
0.99245852 0.57434607 0.45929271 1.1523743e-38
0.98983014 0.5741688 0.45926231 1.1524102e-38
0.98720163 0.5739916 0.45923179 1.1432274e-38
0.98457325 0.57381433 0.4592014 1.1708146e-38
0.9819448 0.57363713 0.45917088 1.1889991e-38
1.110796 0.57970107 0.460787 1.3275816e-38
1.1081676 0.5795238 0.46075648 1.2815202e-38
1.1032401 0.57740998 0.45577687 1.2723005e-38
1.1006212 0.57723337 0.45574659 1.2631171e-38
1.0980023 0.57705677 0.45571619 1.2723007e-38
1.092659 0.5745585 0.44974726 1.2906681e-38
1.0927646 0.57670361 0.45565552 1.2814489e-38
1.0901456 0.576527 0.45562524 1.2722296e-38
1.0875268 0.57635039 0.45559484 1.2630461e-38
1.0849079 0.57617384 0.45556444 1.2630464e-38
1.082289 0.57599723 0.45553416 1.2630466e-38
1.0796702 0.57582062 0.45550376 1.2538267e-38
1.0770512 0.57564408 0.45547348 1.2537901e-38
1.0744324 0.57546747 0.45544308 1.2629013e-38
1.0739982 0.57721978 0.46036059 1.2445695e-38
1.0713696 0.57704252 0.46033007 1.2354231e-38
1.0687413 0.57686532 0.46029967 1.2354242e-38
1.0639567 0.57476109 0.45532173 1.2353875e-38
1.0613379 0.57458448 0.45529133 1.2353867e-38
1.0587189 0.57440794 0.45526105 1.226203e-38
1.0582275 0.57615638 0.46017772 1.2262029e-38
1.0555992 0.57597917 0.46014732 1.217055e-38
1.0529706 0.57580191 0.4601168 1.2170189e-38
1.0503423 0.5756247 0.46008641 1.2077999e-38
1.0502211 0.57775444 0.46599203 1.2077644e-38
1.0450854 0.57527024 0.46002549 1.2169128e-38
1.0424571 0.57509297 0.45999497 1.2077298e-38
1.0398287 0.57491577 0.45996457 1.2076932e-38
1.0372002 0.5747385 0.45993406 1.2169118e-38
1.0345718 0.5745613 0.45990366 1.2352432e-38
1.0319433 0.57438403 0.45987314 1.2169121e-38
1.029315 0.57420683 0.45984274 1.1985449e-38
1.0291022 0.57633042 0.4657473 1.1893971e-38
1.0264624 0.57615238 0.46571666 1.1710297e-38
1.0238225 0.5759744 0.46568602 1.1801412e-38
1.0211827 0.57579643 0.46565551 1.1984721e-38
1.0185428 0.57561839 0.46562487 1.1801046e-38
1.015903 0.57544041 0.46559435 1.1709212e-38
1.0132631 0.57526237 0.46556371 1.1708855e-38
1.0082877 0.57278895 0.45959908 1.1800695e-38
1.0056591 0.57261169 0.45956856 1.1708862e-38
1.0030308 0.57243448 0.45953816 1.1617024e-38
1.0004022 0.57225722 0.45950764 1.1616662e-38
0.99777389 0.57208002 0.45947725 1.1616302e-38
0.9951455 0.57190281 0.45944673 1.161594e-38
0.99251705 0.57172555 0.45941633 1.1616299e-38
0.98988867 0.57154834 0.45938581 1.1524103e-38
0.98726016 0.57137108 0.45935541 1.1432276e-38
0.98463178 0.57119387 0.4593249 1.1708867e-38
0.98200333 0.57101661 0.4592945 1.1986134e-38
1.1136365 0.5793947 0.46685034 1.3183982e-38
1.1082262 0.57690334 0.4608801 1.2723724e-38
1.1032984 0.57479894 0.45590001 1.2631526e-38
1.097932 0.57231057 0.44993037 1.2539693e-38
1.0980606 0.57444578 0.45583934 1.2815202e-38
1.0927171 0.5719589 0.44986993 1.2998516e-38
1.0901096 0.57178307 0.44983965 1.2906325e-38
1.090204 0.57391602 0.45574826 1.2722654e-38
1.0848947 0.57143146 0.44977921 1.2723014e-38
1.0849662 0.5735628 0.45568758 1.263082e-38
1.0845704 0.57530826 0.46060592 1.2630462e-38
1.081942 0.575131 0.46057552 1.253898e-38
1.0793135 0.57495379 0.460545 1.2538976e-38
1.0766852 0.57477653 0.46051461 1.2537897e-38
1.0766784 0.57690263 0.46642202 1.2445341e-38
1.0714283 0.57442206 0.46045369 1.2262393e-38
1.0687999 0.57424486 0.46042317 1.2354234e-38
1.0661714 0.57406759 0.46039277 1.235423e-38
1.0635431 0.57389039 0.46036226 1.2354227e-38
1.0609145 0.57371318 0.46033186 1.2262392e-38
1.0582862 0.57353592 0.46030134 1.2262033e-38
1.0556577 0.57335871 0.46027094 1.2169834e-38
1.0530293 0.57318145 0.46024042 1.216983e-38
1.0529197 0.57530057 0.46614665 1.2077997e-38
1.0477724 0.57282698 0.46017951 1.1986166e-38
1.0451441 0.57264978 0.46014911 1.1894333e-38
1.0425156 0.57247251 0.46011859 1.1986172e-38
1.0398872 0.57229531 0.46008819 1.2077642e-38
1.0372587 0.57211804 0.46005768 1.2261306e-38
1.0346303 0.57194084 0.46002728 1.2444621e-38
1.032002 0.57176358 0.45999676 1.2169117e-38
1.0293735 0.57158637 0.45996636 1.1893969e-38
1.0267451 0.57140911 0.45993584 1.1893971e-38
1.0241168 0.5712319 0.45990545 1.1893968e-38
1.0214882 0.57105464 0.45987493 1.1985084e-38
1.0212414 0.57316452 0.4657796 1.2076916e-38
1.0186015 0.57298654 0.46574897 1.1985077e-38
1.0159618 0.5728085 0.46571845 1.1801049e-38
1.0133219 0.57263052 0.46568781 1.1800693e-38
1.0083462 0.5701685 0.45972258 1.18007e-38
1.0057178 0.56999123 0.45969218 1.1708513e-38
1.0030893 0.56981403 0.45966166 1.161667e-38
1.0004609 0.56963676 0.45963126 1.1616663e-38
0.99783248 0.56945956 0.45960075 1.1524825e-38
0.99520409 0.56928235 0.45957035 1.1616298e-38
0.99068618 0.56720555 0.45459503 1.1708135e-38
0.98994726 0.56892788 0.45950943 1.1524105e-38
0.98544836 0.56685239 0.45453435 1.1340798e-38
0.98692334 0.57085049 0.46538192 1.1709223e-38
0.98428345 0.57067245 0.46535128 1.2075818e-38
1.1109132 0.57446009 0.46103412 1.3184342e-38
1.1082847 0.57428282 0.4610036 1.2723364e-38
1.1033568 0.57218796 0.45602316 1.2723716e-38
1.100738 0.57201135 0.45599288 1.272408e-38
1.098119 0.57183474 0.45596248 1.2815561e-38
1.0927751 0.56935936 0.44999248 1.2906681e-38
1.0901678 0.56918353 0.44996232 1.2814846e-38
1.0902624 0.57130498 0.4558714 1.2722654e-38
1.0849528 0.56883186 0.44990188 1.2723012e-38
1.0850246 0.57095182 0.45581073 1.2631534e-38
1.0846288 0.57268775 0.46072954 1.2631174e-38
1.0820005 0.57251048 0.46069902 1.2631171e-38
1.079372 0.57233328 0.46066862 1.2538973e-38
1.0767436 0.57215601 0.46063811 1.2538257e-38
1.0767373 0.57427073 0.46654612 1.2446421e-38
1.0714867 0.57180154 0.46057719 1.2354586e-38
1.0688584 0.57162434 0.46054679 1.2354584e-38
1.0662299 0.57144707 0.46051627 1.2354227e-38
1.0636015 0.57126987 0.46048588 1.2262392e-38
1.0609732 0.57109267 0.46045536 1.2262394e-38
1.0583447 0.5709154 0.46042496 1.2353514e-38
1.0557163 0.5707382 0.46039444 1.2444266e-38
1.0530878 0.57056093 0.46036404 1.2260947e-38
1.0529785 0.57266867 0.46627086 1.2169114e-38
1.0478311 0.57020646 0.46030313 1.2077999e-38
1.0452026 0.57002926 0.46027261 1.1986522e-38
1.0425742 0.56985199 0.46024221 1.2078356e-38
1.0378846 0.56777316 0.45526451 1.2170186e-38
1.0373173 0.56949753 0.4601813 1.216982e-38
1.0326468 0.56742001 0.45520383 1.2261301e-38
1.0320605 0.56914306 0.46012038 1.2077635e-38
1.0294321 0.56896585 0.46008986 1.1985802e-38
1.0268037 0.56878859 0.46005946 1.1985805e-38
1.0241752 0.56861138 0.46002895 1.1985803e-38
1.0215468 0.56843412 0.45999855 1.1985443e-38
1.0189183 0.56825691 0.45996803 1.1985799e-38
1.0162899 0.56807965 0.45993763 1.1893601e-38
1.0136616 0.56790245 0.45990711 1.1892886e-38
1.0110331 0.56772518 0.45987672 1.1800695e-38
1.0084047 0.56754798 0.4598462 1.1800706e-38
1.0057763 0.56737071 0.4598158 1.1708521e-38
1.0031478 0.56719351 0.45978528 1.1708153e-38
1.0005194 0.56701624 0.45975488 1.1616665e-38
0.99789101 0.56683904 0.45972437 1.1524825e-38
0.99526262 0.56666183 0.45969397 1.1616655e-38
0.99263418 0.56648457 0.45966345 1.1616299e-38
0.99226189 0.56857461 0.46556717 1.1524106e-38
0.98737729 0.5661301 0.45960253 1.1432275e-38
0.9847489 0.5659529 0.45957214 1.1709219e-38
0.98212045 0.56577563 0.45954162 1.1986137e-38
1.1112719 0.57010674 0.45623738 1.35506e-38
1.1058705 0.56763881 0.45026618 1.3092512e-38
1.1083432 0.57166237 0.46112722 1.2632256e-38
1.1034153 0.56957698 0.4561463 1.272409e-38
1.0980482 0.56711137 0.45017546 1.2815924e-38
1.0981774 0.56922376 0.45608562 1.2815565e-38
1.0928333 0.56675971 0.45011514 1.2815207e-38
1.0902257 0.56658387 0.45008487 1.2815207e-38
1.0876184 0.5664081 0.45005471 1.2723012e-38
1.0850109 0.56623226 0.45002443 1.2723012e-38
1.085083 0.56834084 0.45593387 1.2631173e-38
1.0846875 0.57006723 0.46085316 1.2631168e-38
1.082059 0.56989002 0.46082264 1.263117e-38
1.0794306 0.56971276 0.46079224 1.2630811e-38
1.0768023 0.56953555 0.46076173 1.2538617e-38
1.0767961 0.57163882 0.46667022 1.2538974e-38
1.0741563 0.57146078 0.4666397 1.2446777e-38
1.0715164 0.5712828 0.46660906 1.235458e-38
1.0688766 0.57110482 0.46657842 1.2262389e-38
1.0662367 0.57092679 0.46654791 1.2262031e-38
1.0610316 0.56847215 0.46057898 1.2262033e-38
1.060957 0.57057077 0.46648675 1.2444989e-38
1.0583171 0.57039279 0.46645612 1.2628655e-38
1.0556773 0.57021481 0.46642548 1.2444621e-38
1.0530374 0.57003677 0.46639496 1.2169476e-38
1.0478895 0.567586 0.46042663 1.2169836e-38
1.0452611 0.56740874 0.46039623 1.2078359e-38
1.0426327 0.56723154 0.46036571 1.2170913e-38
1.0379429 0.56516218 0.45538765 1.217019e-38
1.035324 0.56498557 0.45535725 1.2170186e-38
1.0327051 0.56480902 0.45532686 1.2077993e-38
1.0300863 0.56463242 0.45529658 1.2077996e-38
1.0274673 0.56445581 0.45526618 1.1985803e-38
1.0248485 0.56427926 0.4552359 1.1985805e-38
1.0222296 0.56410265 0.4552055 1.1985805e-38
1.0216053 0.56581366 0.46012205 1.1893612e-38
1.0189769 0.5656364 0.46009165 1.1801774e-38
1.0163485 0.56545919 0.46006113 1.1893606e-38
1.01372 0.56528193 0.46003073 1.1892887e-38
1.0110917 0.56510472 0.46000022 1.1892529e-38
1.0084633 0.56492746 0.45996982 1.1800695e-38
1.0058348 0.56475025 0.4599393 1.1799978e-38
1.0032064 0.56457299 0.4599089 1.1708499e-38
1.0005779 0.56439579 0.45987839 1.1616662e-38
0.99604064 0.56233674 0.45490199 1.1524825e-38
0.99342173 0.56216013 0.45487171 1.1525182e-38
0.99080288 0.56198359 0.45484132 1.1524465e-38
0.99006432 0.56368685 0.45975655 1.1524108e-38
0.98556507 0.56163037 0.45478064 1.1432632e-38
0.98294622 0.56145376 0.45475024 1.1708859e-38
0.98032731 0.56127721 0.45471996 1.1892508e-38
1.1113302 0.56749576 0.45636052 1.3553116e-38
1.1059287 0.56503922 0.45038873 1.3184353e-38
1.1084018 0.56904185 0.46125084 1.2815938e-38
1.1034734 0.566966 0.45626944 1.2907416e-38
1.1008546 0.56678939 0.45623904 1.3091082e-38
1.0982356 0.56661278 0.45620877 1.299888e-38
1.0928913 0.56416017 0.45023769 1.2906685e-38
1.0902839 0.56398433 0.45020741 1.2814848e-38
1.0876764 0.5638085 0.45017725 1.2814489e-38
1.0850689 0.56363267 0.45014709 1.2723012e-38
1.0851412 0.56572986 0.45605701 1.2723005e-38
1.084746 0.56744677 0.46097666 1.2631163e-38
1.0821176 0.5672695 0.46094626 1.2631168e-38
1.0794892 0.5670923 0.46091574 1.2630814e-38
1.0768608 0.56691504 0.46088535 1.2538618e-38
1.0768548 0.56900692 0.46679443 1.2538615e-38
1.0742151 0.56882888 0.46676379 1.2538253e-38
1.0715752 0.5686509 0.46673316 1.2446411e-38
1.0689354 0.56847292 0.46670264 1.2354221e-38
1.0662955 0.56829488 0.466672 1.2354224e-38
1.0610902 0.56585169 0.4607026 1.2353508e-38
1.0610157 0.56793886 0.46661085 1.2445345e-38
1.0583758 0.56776088 0.46658021 1.2537538e-38
1.053205 0.56531996 0.46061116 1.2353505e-38
1.0505766 0.56514275 0.46058077 1.2261313e-38
1.0479481 0.56496549 0.46055025 1.2169837e-38
1.0453198 0.56478828 0.46051985 1.2170197e-38
1.0426912 0.56461102 0.46048933 1.2170199e-38
1.0380013 0.5625512 0.45551068 1.2169837e-38
1.0353823 0.56237459 0.4554804 1.2169833e-38
1.0327635 0.56219804 0.45545 1.2261668e-38
1.0321777 0.56390208 0.4603675 1.2077997e-38
1.0275257 0.56184483 0.45538932 1.1985805e-38
1.0249068 0.56166828 0.45535904 1.1985805e-38
1.0222878 0.56149167 0.45532864 1.1985449e-38
1.0196689 0.56131506 0.45529824 1.1893615e-38
1.0190355 0.56301594 0.46021515 1.1893613e-38
1.016407 0.56283867 0.46018475 1.1893252e-38
1.0118122 0.56078529 0.45520729 1.189289e-38
1.0091934 0.56060869 0.45517689 1.180105e-38
1.0085218 0.562307 0.46009332 1.1800683e-38
1.0058935 0.56212974 0.46006292 1.1708839e-38
1.0032649 0.56195253 0.4600324 1.1708488e-38
1.0006366 0.56177527 0.46000201 1.1616658e-38
0.99800813 0.56159806 0.45997149 1.1616302e-38
0.99537975 0.56142086 0.45994109 1.1616305e-38
0.99086118 0.5593726 0.45496446 1.1615945e-38
0.99012291 0.56106639 0.45988017 1.1524108e-38
0.98749441 0.56088912 0.45984966 1.1524468e-38
0.98486602 0.56071192 0.45981926 1.1709575e-38
0.98223758 0.56053466 0.45978874 1.1987213e-38
1.1087697 0.56470817 0.45645326 1.3275832e-38
1.1084604 0.56642133 0.46137434 1.2907412e-38
1.1035318 0.56435496 0.45639259 1.3090724e-38
1.100913 0.56417835 0.45636219 1.3274391e-38
1.0955567 0.56173635 0.45039052 1.3090359e-38
1.0929494 0.56156057 0.45036024 1.2906686e-38
1.0903419 0.56138474 0.45033008 1.2906686e-38
1.0877345 0.5612089 0.4502998 1.2906685e-38
1.0851271 0.56103307 0.45026964 1.2814848e-38
1.0825195 0.5608573 0.45023936 1.2723007e-38
1.0825807 0.56294227 0.45614976 1.2723361e-38
1.0799618 0.56276566 0.45611948 1.263117e-38
1.0795476 0.56447178 0.46103936 1.2630455e-38
1.0769193 0.56429452 0.46100885 1.2538977e-38
1.0769137 0.56637502 0.46691853 1.2538976e-38
1.0742738 0.56619698 0.46688789 1.2538613e-38
1.0716339 0.566019 0.46685725 1.253861e-38
1.0689942 0.56584102 0.46682674 1.2446418e-38
1.0637772 0.56340837 0.46085662 1.2446423e-38
1.0611488 0.56323117 0.4608261 1.235387e-38
1.0585203 0.56305391 0.4607957 1.2353152e-38
1.0584347 0.56512898 0.46670431 1.2353512e-38
1.0532634 0.56269944 0.46073478 1.2353512e-38
1.0506351 0.56252223 0.46070427 1.2261675e-38
1.0480067 0.56234497 0.46067387 1.2261317e-38
1.0453782 0.56216776 0.46064335 1.2169844e-38
1.0406785 0.56011677 0.45566422 1.2170207e-38
1.0380596 0.55994022 0.45563382 1.2170201e-38
1.0329779 0.55751669 0.44966525 1.2261673e-38
1.0303705 0.55734086 0.44963509 1.235351e-38
1.0302029 0.55941045 0.45554286 1.21702e-38
1.027584 0.55923384 0.45551246 1.1986168e-38
1.0225481 0.55681342 0.44954449 1.1985806e-38
1.0223463 0.55888063 0.45545179 1.1893613e-38
1.0197272 0.55870408 0.45542139 1.1985449e-38
1.019094 0.56039542 0.46033877 1.1985447e-38
1.0164657 0.56021816 0.46030837 1.1893252e-38
1.0118706 0.55817431 0.45533043 1.1801412e-38
1.0112088 0.55986369 0.46024746 1.1801768e-38
1.0085804 0.55968648 0.46021694 1.1709568e-38
1.0059519 0.55950922 0.46018654 1.1709205e-38
1.0033236 0.55933201 0.46015602 1.1708851e-38
1.000695 0.55915475 0.46012563 1.1708853e-38
0.99806666 0.55897754 0.46009511 1.1616661e-38
0.99543828 0.55880034 0.46006471 1.1615946e-38
0.99091953 0.55676156 0.4550876 1.1615945e-38
0.99018145 0.55844587 0.46000379 1.1615943e-38
0.98568171 0.55640841 0.45502692 1.1524829e-38
0.98306286 0.5562318 0.45499653 1.1801059e-38
0.98229611 0.55791414 0.45991236 1.2077255e-38
1.1425492 0.56230158 0.45105702 5.1618735e-39
1.1088281 0.56209719 0.45657641 1.3276549e-38
1.106209 0.56192058 0.45654601 1.2905976e-38
1.1035903 0.56174397 0.45651573 1.2906689e-38
1.0982225 0.55931264 0.45054334 1.290633e-38
1.0956149 0.55913681 0.45051306 1.2906688e-38
1.0930076 0.55896097 0.4504829 1.2906329e-38
1.0904 0.55878514 0.45045263 1.2906688e-38
1.0877926 0.55860937 0.45042247 1.2906685e-38
1.0851852 0.55843353 0.45039219 1.2814846e-38
1.0825777 0.5582577 0.45036203 1.2814845e-38
1.082639 0.56033128 0.4562729 1.2723007e-38
1.0800202 0.56015468 0.45624262 1.2630813e-38
1.0796063 0.56185126 0.46116287 1.2538977e-38
1.0747824 0.55980146 0.45618182 1.2538977e-38
1.0769725 0.56374311 0.46704262 1.2538977e-38
1.0743327 0.56356514 0.46701199 1.2538615e-38
1.0716928 0.56338716 0.46698147 1.2538613e-38
1.0690531 0.56320912 0.46695083 1.2537899e-38
1.0638359 0.56078792 0.46098012 1.2446067e-38
1.0612073 0.56061065 0.46094972 1.2446425e-38
1.058579 0.56043345 0.4609192 1.2353871e-38
1.0584935 0.56249708 0.46682841 1.2353158e-38
1.0533221 0.56007898 0.46085829 1.2353161e-38
1.0506938 0.55990171 0.46082789 1.2261681e-38
