# .PCD v0.7 - Point Cloud Data file format
VERSION 0.7
FIELDS x y z rgb
SIZE 4 4 4 4
TYPE F F F F
COUNT 1 1 1 1
WIDTH 1026
HEIGHT 1
VIEWPOINT 0 0 0 1 0 0 0
POINTS 1026
DATA ascii
0.93492514 0.57481432 0.26819891 5.0714869e-39
0.93265891 0.57466149 0.26817256 4.8874628e-39
0.93039262 0.57450867 0.26814634 4.9775102e-39
0.92659009 0.57257575 0.26417619 4.978578e-39
0.92586005 0.57420307 0.26809388 4.7945413e-39
0.92359376 0.57405025 0.26806754 4.6112276e-39
0.91981411 0.57211888 0.26409775 4.7945385e-39
0.91755545 0.57196659 0.26407152 4.9785668e-39
0.91529679 0.57181424 0.2640453 4.8856537e-39
0.91452867 0.573439 0.26796252 4.7945301e-39
0.91226244 0.57328618 0.26793629 4.5193781e-39
0.90999615 0.57313335 0.26790994 4.1505998e-39
0.90919751 0.57475603 0.27182704 3.5974316e-39
0.90692365 0.57460266 0.2718007 3.0424698e-39
0.90464973 0.57444936 0.27177435 2.7648081e-39
0.90237582 0.574296 0.27174801 2.3974619e-39
0.9001019 0.57414269 0.27172166 2.3063383e-39
0.89925754 0.57576233 0.27563792 2.2141455e-39
0.89697599 0.57560849 0.27561146 2.12231e-39
0.89646232 0.57766944 0.28051335 2.0301143e-39
0.8941713 0.57751501 0.28048676 2.0301129e-39
0.94404078 0.57316613 0.2684105 8.7563259e-39
0.94177449 0.57301331 0.26838416 6.6337469e-39
0.94108272 0.57463557 0.27230293 5.7143564e-39
0.93880886 0.5744822 0.27227646 4.888546e-39
0.936535 0.5743289 0.27225012 4.9800144e-39
0.93426108 0.5741756 0.27222377 4.98002e-39
0.93198717 0.57402223 0.27219743 4.9793067e-39
0.92817682 0.57209641 0.26822668 4.9800158e-39
0.92591053 0.57194358 0.26820034 4.7956175e-39
0.9236443 0.57179075 0.26817411 4.6119367e-39
0.92137802 0.57163799 0.26814789 4.7959566e-39
0.91911173 0.57148516 0.26812154 4.9803507e-39
0.91684544 0.57133234 0.26809531 4.8870844e-39
0.91457915 0.57117951 0.26806909 4.7945301e-39
0.91379595 0.57279563 0.27198666 4.4271853e-39
0.91152203 0.57264227 0.27196032 4.0591244e-39
0.90924817 0.57248896 0.27193397 3.5970743e-39
0.90697432 0.57233566 0.27190763 3.1335892e-39
0.90615296 0.57394916 0.27582449 2.6736901e-39
0.90387142 0.57379532 0.27579802 2.3052677e-39
0.90158987 0.57364148 0.27577168 2.2137853e-39
0.90109551 0.57569426 0.28067416 2.121954e-39
0.90022647 0.57730454 0.28459078 2.0297626e-39
0.89792776 0.57714957 0.28456408 2.0297612e-39
0.89562911 0.57699454 0.28453749 2.1219526e-39
0.89472961 0.57860285 0.2884534 2.2141553e-39
0.89242333 0.57844734 0.2884267 2.123403e-39
0.9434073 0.57252181 0.27243608 9.3974424e-39
0.94113338 0.5723685 0.27240974 6.996424e-39
0.94042659 0.57398212 0.27632838 4.6105102e-39
0.93658566 0.57206184 0.27235705 4.8878257e-39
0.93431175 0.57190853 0.2723307 5.0714967e-39
0.93203783 0.57175517 0.27230436 4.9796612e-39
0.92976391 0.57160187 0.27227801 4.8878215e-39
0.92749 0.5714485 0.27225167 4.7034289e-39
0.92521608 0.5712952 0.27222532 4.5204711e-39
0.92294228 0.5711419 0.27219898 4.7044967e-39
0.92066836 0.57098854 0.27217263 4.8881676e-39
0.91839445 0.57083523 0.27214628 4.7959734e-39
0.91612053 0.57068187 0.27211994 4.7034149e-39
0.91384661 0.57052857 0.27209359 4.3360687e-39
0.91157269 0.5703752 0.27206725 3.8750975e-39
0.91076684 0.5719822 0.2759847 3.5056031e-39
0.90848529 0.57182837 0.27595824 3.1350284e-39
0.90620375 0.57167453 0.27593178 2.6740516e-39
0.90572858 0.57371908 0.28083497 2.122317e-39
0.90487504 0.57532287 0.28475207 2.0301185e-39
0.90257633 0.57516783 0.28472549 1.9379229e-39
0.9016999 0.57677001 0.28864211 1.9368467e-39
0.89939362 0.5766145 0.28861529 1.937567e-39
0.89708734 0.57645899 0.28858858 2.2134364e-39
0.89478099 0.57630348 0.28856188 2.3992626e-39
0.89247471 0.57614797 0.28853518 2.7687612e-39
0.89016843 0.57599247 0.28850847 3.1357514e-39
0.8892386 0.57759106 0.29242474 2.767699e-39
0.88692468 0.57743502 0.29239792 2.3978361e-39
0.88461077 0.57727903 0.29237109 1.7521093e-39
0.94504046 0.57201517 0.27648848 1.0511326e-38
0.9447276 0.57406121 0.28139395 8.2946345e-39
0.94243652 0.57390672 0.28136748 6.0777075e-39
0.94014549 0.57375222 0.2813409 5.4366919e-39
0.93785441 0.57359773 0.28131431 4.8874684e-39
0.93363285 0.57124597 0.27635628 4.8874628e-39
0.9313513 0.57109213 0.27632993 4.8874628e-39
0.92906982 0.57093829 0.27630347 4.795986e-39
0.92678827 0.57078445 0.27627701 4.7970636e-39
0.92450678 0.57063061 0.27625054 4.7963476e-39
0.92222524 0.57047677 0.27622408 4.8874614e-39
0.91994369 0.57032293 0.27619773 4.7956203e-39
0.9176622 0.57016909 0.27617127 4.7037778e-39
0.91538072 0.57001525 0.2761448 4.4275454e-39
0.91309917 0.56986141 0.27611834 4.1506068e-39
0.91081762 0.56970757 0.27609199 3.5970855e-39
0.91036177 0.57174391 0.28099579 3.1346738e-39
0.90807074 0.57158947 0.2809692 2.6740544e-39
0.90577966 0.57143497 0.28094262 2.3056334e-39
0.90492624 0.57303113 0.28486019 2.1219582e-39
0.90405762 0.57462621 0.28877717 1.9382816e-39
0.90317369 0.57622027 0.29269439 1.9379173e-39
0.90085983 0.57606423 0.29266757 2.0297626e-39
0.89713871 0.57415968 0.28869706 2.1226827e-39
0.89483237 0.57400411 0.28867036 2.3081474e-39
0.89391804 0.57559615 0.2925871 2.6769243e-39
0.89160407 0.57544011 0.29256028 3.1371822e-39
0.88929021 0.57528406 0.29253346 2.8595261e-39
0.88697624 0.57512808 0.29250664 2.4911093e-39
0.88466227 0.57497203 0.29247981 2.0297794e-39
0.88234842 0.57481599 0.29245299 1.5695215e-39
0.86946309 0.57229352 0.28837639 5.0762023e-39
0.86846483 0.57387984 0.29229218 5.6336752e-39
0.86485046 0.57198244 0.28832287 6.2743741e-39
0.86254418 0.57182693 0.28829616 6.9200883e-39
0.86023784 0.57167143 0.28826946 7.3799776e-39
0.9470697 0.57193154 0.28152829 1.15237e-38
0.94477868 0.57177705 0.28150171 9.5929614e-39
0.94405496 0.57337433 0.28542107 7.5585731e-39
0.94175625 0.5732193 0.28539449 6.0769928e-39
0.9394576 0.57306433 0.28536779 4.6097899e-39
0.93561441 0.57115912 0.28139549 4.7949098e-39
0.93486023 0.57275432 0.2853145 4.8871027e-39
0.93256158 0.57259929 0.28528792 4.9789382e-39
0.93026292 0.57244432 0.28526121 4.9796528e-39
0.92796421 0.57228935 0.28523463 4.9796514e-39
0.92415917 0.57038671 0.28126281 4.8874558e-39
0.92186809 0.57023221 0.28123623 4.7952602e-39
0.919577 0.57007772 0.28120965 4.7034191e-39
0.91728598 0.56992322 0.28118306 4.5201012e-39
0.91314995 0.56758678 0.27622563 4.3346365e-39
0.91270387 0.56961429 0.28113002 3.7807537e-39
0.91041279 0.5694598 0.28110343 3.1350312e-39
0.90812182 0.5693053 0.28107697 2.7648137e-39
0.90872157 0.57263786 0.28893906 2.3974661e-39
0.90641528 0.57248235 0.28891236 2.2134308e-39
0.90553916 0.57406938 0.29282993 1.9382774e-39
0.90322518 0.57391334 0.29280311 2.0297486e-39
0.90091133 0.57375729 0.29277629 2.0304759e-39
0.89859736 0.57360131 0.29274958 2.1233974e-39
0.89628345 0.57344526 0.29272276 2.124475e-39
0.89396954 0.57328922 0.29269594 2.6772844e-39
0.89165556 0.57313323 0.29266912 3.135027e-39
0.89106274 0.57515079 0.29757172 2.858803e-39
0.88873923 0.57499415 0.2975449 2.5822203e-39
0.88471383 0.57266515 0.29258865 2.3067138e-39
0.88239992 0.57250911 0.29256183 1.9379355e-39
0.88176894 0.5745241 0.29746407 1.9368593e-39
0.87545812 0.57204103 0.29248136 2.3931627e-39
0.87314421 0.57188499 0.29245454 2.8598862e-39
0.8708303 0.57172894 0.29242772 3.0453635e-39
0.86851633 0.57157296 0.2924009 3.1425898e-39
0.86620241 0.57141691 0.29237407 4.5201334e-39
0.8638885 0.57126087 0.29234725 5.8101478e-39
0.86028922 0.56937212 0.28837782 6.549868e-39
0.85798293 0.56921661 0.28835112 7.1955947e-39
0.85567665 0.5690611 0.28832442 8.3966393e-39
0.85337031 0.56890559 0.28829771 9.5905035e-39
0.9448297 0.56949288 0.28160948 1.0512107e-38
0.94410622 0.57108259 0.2855292 9.5883007e-39
0.94180751 0.57092756 0.28550249 7.3730566e-39
0.9395088 0.57077259 0.28547591 5.1597085e-39
0.93566543 0.56887496 0.28150326 5.1611742e-39
0.93491149 0.57046258 0.28542262 5.2544446e-39
0.93261278 0.57030755 0.28539592 4.978578e-39
0.93031406 0.57015258 0.28536934 4.7952602e-39
0.92801547 0.56999761 0.28534263 4.8874474e-39
0.92421019 0.56810254 0.28137046 4.8874502e-39
0.92341805 0.5696876 0.28528935 4.7952588e-39
0.91962802 0.56779355 0.28131741 4.7030617e-39
0.91882074 0.5693776 0.28523618 4.4279098e-39
0.9132008 0.56531215 0.27633291 4.2435185e-39
0.91422331 0.5690676 0.28518289 3.6892741e-39
0.91192472 0.56891257 0.28515619 3.134671e-39
0.91107929 0.57049406 0.28907424 2.7651725e-39
0.91202557 0.57424438 0.29792339 2.397106e-39
0.90970218 0.57408768 0.29789644 2.2141441e-39
0.90737867 0.57393104 0.2978695 2.0308262e-39
0.90505528 0.57377434 0.29784256 2.0304619e-39
0.90273178 0.5736177 0.29781562 2.0304731e-39
0.90040833 0.573461 0.29778868 1.9393648e-39
0.89808488 0.57330436 0.29776174 1.8478923e-39
0.89576137 0.57314771 0.29773492 2.2152371e-39
0.89343798 0.57299101 0.29770797 2.5807826e-39
0.89111447 0.57283437 0.29768103 2.3978249e-39
0.88879102 0.57267767 0.29765409 2.3052719e-39
0.88476539 0.57035816 0.29269749 2.1219596e-39
0.88245147 0.57020211 0.29267067 1.9379327e-39
0.88182068 0.57220769 0.29757327 1.9368579e-39
0.88083607 0.57377976 0.30148977 2.0279493e-39
0.87717378 0.57189435 0.29751951 2.3956234e-39
0.87485027 0.57173765 0.29749256 2.8566044e-39
0.8708818 0.56942201 0.29253656 2.952037e-39
0.87020338 0.57142431 0.29743868 3.1364451e-39
0.86625397 0.56910992 0.29248291 3.8732997e-39
0.86394006 0.56895393 0.29245609 4.6069383e-39
0.86162615 0.56879789 0.29242927 5.0704514e-39
0.85803431 0.56691724 0.2884596 5.5332288e-39
0.85572803 0.56676173 0.2884329 6.2740224e-39
0.94803143 0.57068288 0.28961033 1.1432969e-38
0.9457252 0.57052737 0.28958362 1.1612304e-38
0.94341886 0.57037187 0.28955692 8.6674374e-39
0.94111258 0.57021636 0.2895301 5.7197178e-39
0.93726134 0.56832582 0.28555733 5.6185398e-39
0.93649995 0.56990534 0.28947669 5.5281491e-39
0.93266404 0.56801581 0.28550404 5.0689814e-39
0.93036532 0.56786084 0.28547734 4.6112276e-39
0.92806661 0.56770587 0.28545076 4.7956049e-39
0.92576796 0.56755084 0.28542417 4.8870929e-39
0.92346931 0.56739587 0.28539747 4.7952686e-39
0.92117059 0.56724083 0.28537089 4.6115892e-39
0.92035586 0.56881672 0.28928965 4.3360743e-39
0.91804957 0.56866121 0.28926283 4.0591286e-39
0.91904771 0.57239795 0.29811341 3.5977946e-39
0.91489798 0.57007957 0.29315478 3.1350242e-39
0.91440082 0.57208461 0.29805952 2.7640892e-39
0.91352314 0.57365626 0.30197757 2.3974605e-39
0.91119206 0.57349908 0.30195051 2.2145028e-39
0.90886098 0.57334185 0.30192357 2.030829e-39
0.9065299 0.57318467 0.30189651 2.0304661e-39
0.90419877 0.57302749 0.30186945 1.9386362e-39
0.90186775 0.57287031 0.30184251 1.7553295e-39
0.89953661 0.57271314 0.30181545 1.5716627e-39
0.89720559 0.57255596 0.30178839 1.7542617e-39
0.89487445 0.57239878 0.30176145 1.9382872e-39
0.89254344 0.5722416 0.30173439 1.9379257e-39
0.8902123 0.57208443 0.30170745 1.9379271e-39
0.88788128 0.57192725 0.30168039 1.9382886e-39
0.88555014 0.57177001 0.30165333 1.8460944e-39
0.88321912 0.57161283 0.30162638 1.9368537e-39
0.88088799 0.57145566 0.30159932 2.0290339e-39
0.87722552 0.56957787 0.2976287 2.3967192e-39
0.87490207 0.56942123 0.29760176 2.7662178e-39
0.87257862 0.56926453 0.29757482 2.9534789e-39
0.87156367 0.57082695 0.30149132 3.136808e-39
0.86793172 0.56895119 0.29752105 3.3212119e-39
0.86560822 0.56879455 0.29749411 3.4112719e-39
0.86167771 0.56649095 0.29253811 3.6835666e-39
0.85936379 0.5663349 0.29251128 3.8719026e-39
0.85704982 0.56617886 0.29248446 4.2396061e-39
0.85473591 0.56602281 0.29245764 4.5251739e-39
0.94347024 0.5680725 0.28966528 1.0050425e-38
0.94116396 0.56791699 0.28963858 8.7596442e-39
0.93885767 0.56776148 0.28961188 6.9128281e-39
0.93655133 0.56760597 0.28958517 5.1604413e-39
0.93424505 0.56745046 0.28955835 4.7020009e-39
0.93193877 0.56729496 0.28953165 4.3360771e-39
0.92581916 0.5652591 0.28553218 4.9785696e-39
0.92352051 0.56510407 0.28550559 4.8871125e-39
0.92122179 0.5649491 0.28547889 4.7956231e-39
0.92040724 0.56651741 0.28939801 4.427551e-39
0.91810095 0.5663619 0.28937131 4.0591272e-39
0.92056829 0.57180375 0.30216819 3.5974316e-39
0.91677606 0.56992483 0.29819566 3.1346598e-39
0.91590607 0.57148939 0.30211419 2.85771e-39
0.915021 0.57305294 0.30603272 2.4896505e-39
0.91124398 0.57117504 0.30206007 2.306697e-39
0.9089129 0.5710178 0.30203313 2.0308304e-39
0.90658176 0.57086062 0.30200607 2.0304703e-39
0.90425074 0.57070345 0.30197912 1.9379187e-39
0.9019196 0.57054627 0.30195206 1.8464419e-39
0.89958858 0.57038909 0.301925 1.7549708e-39
0.89725745 0.57023191 0.30189806 1.938646e-39
0.89492643 0.57007474 0.301871 2.0304773e-39
0.89259529 0.56991756 0.30184406 2.0301143e-39
0.89026427 0.56976038 0.301817 1.9379243e-39
0.88793314 0.5696032 0.30178994 1.846093e-39
0.88695657 0.57116055 0.30570751 1.6624206e-39
0.88461781 0.5710029 0.30568033 1.8460902e-39
0.88227916 0.57084519 0.30565327 2.0297584e-39
0.87727726 0.56726146 0.2977379 2.2137853e-39
0.8762778 0.56881726 0.30165488 2.3988884e-39
0.87263036 0.56694812 0.29768413 2.76838e-39
0.87161559 0.5685029 0.30160087 3.1364535e-39
0.86798346 0.56663477 0.29763025 3.2283016e-39
0.86695349 0.56818855 0.30154687 3.3183476e-39
0.86172926 0.56418401 0.29264683 3.4098286e-39
0.85941529 0.56402797 0.29262 3.5005795e-39
0.85868967 0.56600809 0.29752249 3.5934828e-39
0.85762912 0.56755978 0.30143887 3.6842715e-39
0.85655344 0.56911051 0.30535513 4.2428473e-39
0.85421467 0.5689528 0.30532807 4.8871643e-39
0.8534261 0.57092863 0.31022972 5.5365036e-39
0.85107791 0.57077026 0.31020242 6.1865183e-39
0.84872967 0.57061195 0.31017524 7.014823e-39
0.94352162 0.56577319 0.28977376 1.1525175e-38
0.94121534 0.56561768 0.28974706 1.1702354e-38
0.93890905 0.56546217 0.28972024 8.2039607e-39
0.93660271 0.56530666 0.28969353 4.7077463e-39
0.93429643 0.56515115 0.28966683 4.4254155e-39
0.93199015 0.56499565 0.28964013 4.0598587e-39
0.92922693 0.57692641 0.319076 3.9669358e-39
0.92392552 0.57333767 0.31115645 3.5974386e-39
0.92157722 0.57317936 0.31112927 3.1357402e-39
0.91922903 0.57302099 0.31110209 2.8587904e-39
0.9150731 0.57072127 0.30614263 2.582928e-39
0.91273439 0.57056355 0.30611557 2.3074243e-39
0.91039568 0.5704059 0.30608851 2.030836e-39
0.90805697 0.57024819 0.30606133 2.0301129e-39
0.90430266 0.56837946 0.30208868 1.9382746e-39
0.90197158 0.56822228 0.30206162 1.9379145e-39
0.90104091 0.5697751 0.30598003 1.9386348e-39
0.89730942 0.56790787 0.30200762 2.0304731e-39
0.89497834 0.56775069 0.30198067 2.1226673e-39
0.89264727 0.56759351 0.30195361 2.0304731e-39
0.89168608 0.56914431 0.30587167 1.9379229e-39
0.88934731 0.56898659 0.30584449 1.7542561e-39
0.88700867 0.56882888 0.30581743 1.4787496e-39
0.88635373 0.57080424 0.3107211 1.7549736e-39
0.88400555 0.57064593 0.3106938 1.9382816e-39
0.87999249 0.5683558 0.30573612 1.9382788e-39
0.87765384 0.56819808 0.30570906 1.9397138e-39
0.87268209 0.56463164 0.29779333 2.5839986e-39
0.87035871 0.564475 0.29776639 3.1360962e-39
0.86933649 0.56602168 0.30168349 3.1364633e-39
0.86700541 0.5658645 0.30165642 3.136106e-39
0.8633883 0.56400496 0.29768568 3.1364675e-39
0.86106485 0.56384832 0.29765874 3.1350214e-39
0.86128289 0.56709421 0.30551928 2.9499056e-39
0.85894418 0.56693655 0.30549222 2.7651809e-39
0.85817492 0.56890416 0.31039447 2.026932e-39
0.85582674 0.56874579 0.31036729 1.2976374e-39
0.85347843 0.56858748 0.31034011 1.8472253e-39
0.85113025 0.56842911 0.31031293 2.3146564e-39
0.848782 0.5682708 0.31028563 3.3277209e-39
0.92927957 0.57457 0.3191871 4.0587741e-39
0.92691612 0.57441068 0.31915969 3.5059675e-39
0.92309111 0.57254475 0.31518596 2.9524336e-39
0.92073524 0.57238591 0.31515867 2.7673164e-39
0.91693306 0.57052153 0.31118518 2.5836511e-39
0.91458488 0.57036316 0.311158 2.3074327e-39
0.91223663 0.57020485 0.31113082 2.122317e-39
0.90810907 0.56791651 0.30617136 2.0304717e-39
0.90577042 0.56775886 0.30614418 1.9382732e-39
0.90343165 0.56760114 0.30611712 2.0304619e-39
0.90284371 0.5695715 0.31102198 2.1226575e-39
0.89875424 0.56728572 0.30606288 2.3063285e-39
0.89641559 0.56712806 0.30603582 2.4907211e-39
0.89407682 0.56697035 0.30600876 2.3063369e-39
0.89345074 0.56893814 0.31091315 2.1212352e-39
0.89246494 0.57047963 0.31483108 1.9379257e-39
0.89010906 0.57032079 0.31480378 1.7538974e-39
0.88775325 0.57016194 0.31477648 1.8464503e-39
0.88539737 0.57000309 0.31474918 1.938283e-39
0.8830415 0.56984419 0.31472188 2.0304731e-39
0.88068569 0.56968534 0.31469458 2.1230302e-39
0.87701309 0.56782973 0.31072265 2.5843629e-39
0.8746649 0.56767136 0.31069547 3.0449795e-39
0.86938834 0.56369764 0.30179304 3.1368192e-39
0.86705732 0.56354046 0.3017661 3.2290135e-39
0.86344004 0.56168848 0.29779488 3.2286533e-39
0.86111665 0.56153184 0.29776794 3.1368052e-39
0.86133504 0.56476259 0.30562931 2.9513279e-39
0.86057544 0.56672132 0.31053215 2.767315e-39
0.85822725 0.56656301 0.31050497 2.3985535e-39
0.85587901 0.56640464 0.31047767 2.0315549e-39
0.85477126 0.56793797 0.3143943 2.3063271e-39
0.85241532 0.56777912 0.314367 2.5800553e-39
0.85128468 0.56931084 0.31828326 2.9527937e-39
0.84892118 0.56915146 0.31825584 3.3197952e-39
0.92880547 0.5741787 0.32420427 3.4148438e-39
0.92460531 0.57189494 0.31924349 2.7687514e-39
0.92078769 0.57003719 0.31526941 2.6747481e-39
0.91843188 0.56987828 0.31524211 2.5832783e-39
0.916076 0.56971943 0.31521481 2.3999745e-39
0.91372013 0.56956059 0.31518751 2.1230232e-39
0.90994072 0.56770533 0.31121403 2.0304619e-39
0.90759248 0.56754702 0.31118673 1.9389865e-39
0.90524423 0.56738865 0.31115955 2.1230176e-39
0.90429676 0.5689252 0.31507832 2.2152118e-39
0.90194082 0.56876636 0.31505102 2.4900009e-39
0.89958501 0.56860745 0.31502372 2.7669409e-39
0.89585125 0.56675529 0.31105071 2.4903582e-39
0.89487326 0.56828976 0.31496912 2.2145e-39
0.89558327 0.57193851 0.32381922 2.1219526e-39
0.89151657 0.56966376 0.31885999 2.0293969e-39
0.89083719 0.5716185 0.32376426 2.0297528e-39
0.88846421 0.57145846 0.32373673 1.9379201e-39
0.88609123 0.57129848 0.32370919 2.1215953e-39
0.88371819 0.57113844 0.32368177 2.2152315e-39
0.87969911 0.56886691 0.31872302 2.5847329e-39
0.87733567 0.56870759 0.31869572 2.9531496e-39
0.87367058 0.56686008 0.31472343 3.137178e-39
0.8713147 0.56670123 0.31469613 3.3208461e-39
0.86477816 0.56105924 0.30184871 3.2286505e-39
0.86372584 0.56258863 0.30576628 3.1364465e-39
0.86138713 0.56243092 0.30573922 2.9513321e-39
0.86062777 0.56438017 0.31064254 2.6765543e-39
0.85827953 0.56422186 0.31061536 2.7687598e-39
0.85717952 0.5657481 0.31453234 2.7669577e-39
0.85482371 0.56558925 0.31450504 2.8577086e-39
0.85246783 0.5654304 0.31447774 2.8573597e-39
0.85011196 0.56527156 0.31445044 2.5829378e-39
0.84897387 0.56679511 0.31836706 2.2166818e-39
0.93694502 0.57594186 0.33325237 4.5193907e-39
0.9327085 0.5736652 0.32829064 4.151683e-39
0.92885828 0.57181281 0.32431585 3.4141208e-39
0.92465794 0.56953859 0.31935459 2.6754697e-39
0.9222945 0.56937927 0.31932718 2.4910603e-39
0.91848433 0.56752956 0.31535298 2.3992346e-39
0.91612852 0.56737071 0.31532556 2.3074089e-39
0.91377264 0.56721187 0.31529826 2.2152076e-39
0.90999305 0.56536418 0.31132442 2.0308108e-39
0.90764481 0.56520587 0.31129724 1.9389837e-39
0.90670502 0.56673527 0.31521636 2.1233792e-39
0.90575016 0.56826365 0.31913549 2.3999604e-39
0.90338659 0.56810427 0.31910807 3.0438837e-39
0.90102315 0.56794494 0.31908065 3.6888804e-39
0.89865965 0.56778556 0.31905335 3.0438739e-39
0.89800912 0.56973267 0.32395834 2.4917945e-39
0.89699888 0.57125729 0.32787687 2.3059796e-39
0.8932631 0.56941265 0.32390326 2.1205093e-39
0.8922376 0.57093626 0.32782167 1.9375488e-39
0.88985699 0.57077575 0.32779402 1.8460818e-39
0.88747633 0.57061523 0.32776648 2.0301213e-39
0.88509572 0.57045472 0.32773894 2.2148797e-39
0.88139808 0.56861258 0.32376581 2.5843853e-39
0.87902504 0.5684526 0.32373828 2.9538727e-39
0.87502486 0.56619185 0.31877941 3.1375367e-39
0.87266135 0.56603253 0.31875199 3.3212035e-39
0.87190598 0.56797254 0.32365578 3.229005e-39
0.86953294 0.5678125 0.32362837 3.1371639e-39
0.86429965 0.56387591 0.31472498 2.9527699e-39
0.8606801 0.56203902 0.31075293 2.8609414e-39
0.85958791 0.56355822 0.31467038 2.8598708e-39
0.85723203 0.56339931 0.31464309 2.8591533e-39
0.85611701 0.56491691 0.3185603 2.8580771e-39
0.85375345 0.56475753 0.31853288 2.8580799e-39
0.85016441 0.56292278 0.31456119 2.6744118e-39
0.94125414 0.5758273 0.33832711 4.9785738e-39
0.93885446 0.57566547 0.33829933 4.6108647e-39
0.93645477 0.57550371 0.33827144 4.2427996e-39
0.93038082 0.57113123 0.32837504 3.4144795e-39
0.92800021 0.57097071 0.32834738 2.5843587e-39
0.92416513 0.5691269 0.32437235 2.3985213e-39
0.91998363 0.56686348 0.31941086 2.123019e-39
0.91762018 0.56670415 0.31938356 2.2148587e-39
0.91525668 0.56654477 0.31935614 2.2144958e-39
0.91146922 0.56470424 0.31538182 2.1222974e-39
0.90911341 0.56454533 0.31535453 1.9389893e-39
0.90816623 0.56606668 0.31927401 2.2152189e-39
0.90580273 0.5659073 0.31924659 2.4921631e-39
0.90518105 0.56784683 0.32415241 3.5045087e-39
0.90280801 0.56768686 0.32412487 4.5146908e-39
0.90043497 0.56752682 0.32409734 3.5959701e-39
0.89943254 0.56904441 0.32801634 2.6751096e-39
0.89705193 0.56888384 0.3279888 2.3970976e-39
0.8963654 0.57081902 0.33289391 2.1212282e-39
0.89397526 0.57065785 0.33286625 1.9379131e-39
0.89158511 0.57049668 0.33283848 1.6624052e-39
0.88919497 0.57033551 0.33281082 1.9379117e-39
0.88680482 0.57017434 0.33278316 2.2152259e-39
0.88441455 0.57001317 0.33275539 2.5840182e-39
0.88038743 0.56776017 0.32779568 2.8613155e-39
0.87800682 0.56759965 0.32776803 3.0457012e-39
0.87433183 0.56576669 0.3237949 3.2290107e-39
0.87195885 0.56560671 0.32376736 3.2290092e-39
0.87694049 0.57505727 0.34642535 3.1371653e-39
0.87452364 0.57489431 0.34639746 3.0449641e-39
0.87210679 0.57473135 0.34636945 2.9524196e-39
0.85964036 0.56120944 0.31478113 2.950993e-39
0.85728455 0.56105053 0.31475383 2.9506301e-39
0.85616958 0.56256056 0.31867141 2.9495497e-39
0.85380614 0.56240118 0.31864399 2.8580729e-39
0.9452076 0.57527536 0.34241599 5.7136305e-39
0.94280028 0.57511306 0.34238809 4.2449675e-39
0.94039297 0.57495075 0.3423602 4.3353554e-39
0.93798566 0.57478839 0.3423323 4.4264692e-39
0.9341085 0.57294941 0.33835655 3.6892685e-39
0.92988098 0.57069242 0.33339411 2.8595135e-39
0.92749083 0.57053125 0.33336633 2.5822049e-39
0.92329198 0.56827617 0.32840413 2.305981e-39
0.91947198 0.56644106 0.32442898 2.2141441e-39
0.91530931 0.56418842 0.31946725 2.1219498e-39
0.91294587 0.56402904 0.31943983 2.0304717e-39
0.90916586 0.56219661 0.31546527 1.9386376e-39
0.90997994 0.56580102 0.32431895 2.2148629e-39
0.90900815 0.56731302 0.32823867 2.3992584e-39
0.90662754 0.5671525 0.32821101 2.8598778e-39
0.90597939 0.56908071 0.33311707 3.4123159e-39
0.90186626 0.56683141 0.32815582 2.7680213e-39
0.90119904 0.56875837 0.33306175 2.2155762e-39
0.89880884 0.5685972 0.33303398 2.1226673e-39
0.89811301 0.57052225 0.33793944 2.0297542e-39
0.89402854 0.56827492 0.33297855 1.9379173e-39
0.8916384 0.56811374 0.33295089 1.7545938e-39
0.88924819 0.56795257 0.33292323 2.0304478e-39
0.88685805 0.5677914 0.33289546 2.3070487e-39
0.890396 0.57512891 0.35062522 2.6758439e-39
0.88666177 0.57329959 0.34665102 3.1371766e-39
0.87968755 0.56730789 0.33281237 3.2293722e-39
0.88182807 0.57297367 0.34659511 3.3204902e-39
0.87941122 0.57281071 0.34656709 3.1368178e-39
0.87699437 0.57264775 0.34653908 3.0453327e-39
0.87457752 0.57248473 0.34651107 3.0449641e-39
0.87216067 0.57232177 0.34648305 2.952421e-39
0.94955373 0.57512718 0.34749287 1.0316509e-38
0.94526124 0.57287526 0.34252912 6.9081632e-39
0.94285393 0.57271296 0.34250122 3.5088289e-39
0.94044662 0.57255065 0.34247333 4.0591399e-39
0.9380393 0.57238829 0.34244543 4.6094256e-39
0.93563199 0.57222599 0.34241754 3.8729381e-39
0.93176228 0.57039511 0.33844155 3.13502e-39
0.92936254 0.57023329 0.33841377 2.7651612e-39
0.92515391 0.56798714 0.33345109 2.3974577e-39
0.92096436 0.56574219 0.32848853 2.2134266e-39
0.91858375 0.56558168 0.32846087 1.9386348e-39
0.91477883 0.56375515 0.32448548 1.9389907e-39
0.91240585 0.56359518 0.32445806 1.9386348e-39
0.91320312 0.56718129 0.33331257 2.1219498e-39
0.91081291 0.56702012 0.33328491 2.3063411e-39
0.91016495 0.56893879 0.33819121 2.306704e-39
0.90915143 0.57044041 0.34211069 2.2155804e-39
0.90674412 0.57027811 0.3420828 2.0311863e-39
0.90433681 0.57011575 0.3420549 1.755684e-39
0.90192944 0.56995344 0.34202701 1.8482412e-39
0.89816648 0.56812978 0.33805221 1.9386376e-39
0.89576679 0.56796795 0.33802444 1.9371998e-39
0.89336711 0.56780612 0.33799654 1.8464321e-39
0.89096737 0.56764436 0.33796877 2.1219316e-39
0.88856769 0.56748253 0.33794099 2.3985241e-39
0.88913244 0.57105303 0.34679276 2.8591477e-39
0.88671559 0.57089007 0.34676474 3.3201231e-39
0.8842988 0.57072705 0.34673673 3.3215622e-39
0.88188195 0.57056409 0.34670871 3.3208447e-39
0.87946504 0.57040113 0.3466807 3.1364577e-39
0.87704819 0.57023817 0.34665269 2.952421e-39
0.87590313 0.57173091 0.35057062 2.9531328e-39
0.87347865 0.57156742 0.35054249 2.9527769e-39
0.94960761 0.57271767 0.34760648 1.0878656e-38
0.94531488 0.57047522 0.34264237 8.5701228e-39
0.94290757 0.57031292 0.34261447 6.169529e-39
0.94050026 0.57015061 0.34258658 5.2512161e-39
0.93809295 0.56998825 0.34255868 4.3339233e-39
0.93568563 0.56982595 0.34253079 3.6885483e-39
0.93181574 0.5680027 0.33855432 3.1339438e-39
0.93087095 0.56950128 0.342475 2.6733271e-39
0.92701632 0.56767911 0.33849877 2.3052649e-39
0.92281699 0.56544298 0.33353573 2.1219484e-39
0.92042685 0.56528187 0.33350807 1.9389907e-39
0.91625613 0.56304771 0.32854527 1.9386264e-39
0.91387546 0.56288719 0.32851762 1.9379145e-39
0.91501784 0.56687003 0.33835965 2.0301129e-39
0.91261816 0.56670821 0.33833188 2.1219484e-39
0.91161239 0.56820267 0.34225172 2.121947e-39
0.90920508 0.56804037 0.34222382 2.1215883e-39
0.90679777 0.56787807 0.34219593 1.938276e-39
0.90610427 0.56978422 0.34710234 1.8460874e-39
0.90198308 0.5675534 0.34214014 1.9390047e-39
0.89957577 0.5673911 0.34211224 2.0304759e-39
0.89716846 0.56722873 0.34208435 1.9382746e-39
0.89476109 0.56706643 0.34205645 1.9386306e-39
0.89102089 0.56525195 0.33808166 2.1222974e-39
0.88862115 0.56509012 0.33805376 2.3978066e-39
0.88622147 0.56492829 0.33802599 3.0428089e-39
0.88382179 0.56476647 0.33799821 3.7789348e-39
0.88142204 0.5646047 0.33797032 3.5041528e-39
0.88031721 0.56609249 0.34188908 3.2286477e-39
0.88080609 0.5696407 0.35074073 3.0442607e-39
0.87838161 0.5694772 0.35071272 2.8587932e-39
0.87468517 0.56766564 0.34673828 2.9524196e-39
0.87353265 0.56915027 0.35065645 2.9527727e-39
0.86985147 0.56733972 0.34668225 3.0438851e-39
0.86743462 0.56717676 0.34665424 3.1349961e-39
0.94777584 0.56823754 0.34278339 1.1430427e-38
0.94536853 0.56807518 0.3427555 1.0141102e-38
0.94296122 0.56791288 0.3427276 8.843184e-39
0.94055384 0.56775057 0.34269971 6.4425215e-39
0.93814653 0.56758821 0.34267181 3.9647694e-39
0.93573922 0.56742591 0.34264392 3.5056031e-39
0.93186921 0.56561023 0.33866721 3.0421139e-39
0.93092453 0.56710124 0.34258813 2.5800581e-39
0.92706978 0.56528664 0.33861154 2.1215939e-39
0.9246701 0.56512481 0.33858377 2.0297556e-39
0.92227042 0.56496298 0.33855599 1.8464405e-39
0.91808999 0.5627377 0.33359271 1.846079e-39
0.91747099 0.56463939 0.33850032 1.846086e-39
0.91648066 0.5661273 0.34242076 1.846093e-39
0.91407335 0.565965 0.34239286 1.8460846e-39
0.91166604 0.56580263 0.34236497 1.9379117e-39
0.91099179 0.56770056 0.3472721 1.9379145e-39
0.90857494 0.56753761 0.34724408 1.9379173e-39
0.90615809 0.56737465 0.34721607 1.9382816e-39
0.90510488 0.56885833 0.35113567 2.0304815e-39
0.9026804 0.56869483 0.35110766 2.0304759e-39
0.89890754 0.56688577 0.34713203 2.0301115e-39
0.89649069 0.56672281 0.34710401 1.9386278e-39
0.8910743 0.56285948 0.33819443 2.2144846e-39
0.88867462 0.56269765 0.33816665 2.3985199e-39
0.88627493 0.56253582 0.33813876 3.3183154e-39
0.88518548 0.56401712 0.34205812 4.1462768e-39
0.88277817 0.56385475 0.34203023 3.6874665e-39
0.8819896 0.565745 0.34693593 3.1368136e-39
0.87957275 0.56558204 0.34690791 2.9531454e-39
0.88003534 0.56911129 0.35576016 2.768757e-39
0.87919146 0.57099783 0.36066526 2.8609512e-39
0.87832856 0.57288301 0.36557013 2.9527783e-39
0.87587547 0.57271761 0.36554176 3.0438865e-39
0.87342238 0.5725522 0.36551327 3.1353591e-39
0.87096936 0.5723868 0.36548489 3.0428019e-39
0.94542217 0.56567514 0.34286875 1.0695074e-38
0.94301486 0.56551284 0.34284085 1.0048189e-38
0.94060749 0.56535047 0.34281296 7.6488938e-39
0.93820018 0.56518817 0.34278506 5.2497307e-39
0.93579286 0.56502581 0.34275705 3.7782482e-39
0.93338549 0.5648635 0.34272915 2.3063579e-39
0.93097818 0.5647012 0.34270126 2.3056292e-39
0.92857087 0.56453884 0.34267336 2.3971018e-39
0.92472351 0.56273234 0.33869654 2.1219498e-39
0.92375624 0.56421423 0.34261757 1.9382788e-39
0.91636217 0.55830079 0.32876915 1.9382774e-39
0.9125644 0.55649757 0.32479268 1.9382872e-39
0.9165343 0.56372726 0.34253389 1.8464616e-39
0.91412699 0.5635649 0.34250599 1.846086e-39
0.91346252 0.56545401 0.34741372 2.0297402e-39
0.91243231 0.56693161 0.35133404 2.2134168e-39
0.9117316 0.56881821 0.35624117 2.0301101e-39
0.90929759 0.56865412 0.35621303 1.9389991e-39
0.90686363 0.56849003 0.35618478 1.938646e-39
0.90442961 0.56832588 0.35615665 2.0301185e-39
0.9019956 0.56816173 0.35612839 1.9382774e-39
0.89956164 0.56799757 0.35610014 1.9382662e-39
0.89171082 0.56398726 0.34716159 2.2137699e-39
0.88929397 0.5638243 0.34713358 2.9506147e-39
0.88687712 0.56366134 0.34710556 3.6874595e-39
0.88446033 0.56349838 0.34707755 3.41196e-39
0.88333857 0.56496984 0.35099679 3.136815e-39
0.88413298 0.56889117 0.3608368 3.0449823e-39
0.88168943 0.56872642 0.36080843 2.9527923e-39
0.88083625 0.57060272 0.36571389 3.0446306e-39
0.87522155 0.56635636 0.35581809 3.044618e-39
0.87278754 0.56619227 0.35578996 3.0446054e-39
0.8734771 0.57010651 0.36562866 2.9527685e-39
0.87102401 0.5699411 0.36560017 2.9520482e-39
0.86857092 0.5697757 0.3655718 2.9527671e-39
0.94306844 0.56311274 0.34295398 1.115384e-38
0.94066107 0.56295043 0.34292608 8.8546803e-39
0.94010174 0.5648371 0.34783536 6.4533157e-39
0.93768489 0.56467408 0.34780735 4.0515925e-39
0.93343914 0.56246346 0.3428424 1.5705935e-39
0.93285114 0.56434816 0.34775132 2.1226771e-39
0.93188214 0.5658223 0.35167271 2.5822077e-39
0.9280175 0.56402224 0.34769541 2.3066956e-39
0.92560065 0.56385928 0.3476674 2.0304675e-39
0.91641521 0.55592728 0.32888108 2.0297472e-39
0.91261727 0.55413175 0.32490426 1.9379173e-39
0.91975975 0.56500489 0.35153228 1.938283e-39
0.91733527 0.56484139 0.35150415 1.846079e-39
0.91491079 0.56467789 0.35147613 2.1212184e-39
0.91421986 0.56655574 0.35638386 2.3978038e-39
0.91350985 0.56843221 0.36129147 2.2134196e-39
0.91106629 0.56826741 0.3612631 1.938632e-39
0.91032767 0.57014197 0.36617035 1.9386334e-39
0.90787458 0.56997657 0.36614197 1.938632e-39
0.90677035 0.57144159 0.37006158 1.9382732e-39
0.90430963 0.57127565 0.37003309 1.8467923e-39
0.90184891 0.57110977 0.37000459 1.9393424e-39
0.89176464 0.56157774 0.3472752 2.0311821e-39
0.89066601 0.56304312 0.35119516 2.5832755e-39
0.88824153 0.56287962 0.35116702 3.136092e-39
0.88581711 0.56271613 0.35113889 3.1364605e-39
0.88339257 0.56255269 0.35111088 3.1368178e-39
0.88257778 0.56442213 0.35601717 3.1364591e-39
0.88014376 0.56425798 0.35598904 3.1364605e-39
0.87770975 0.56409383 0.35596079 3.136822e-39
0.87527573 0.56392968 0.35593253 3.1368136e-39
0.87598479 0.56782627 0.36577231 2.9531356e-39
0.8735317 0.56766087 0.36574394 2.7683856e-39
0.87107861 0.56749541 0.36571556 2.8602197e-39
0.86862558 0.56733 0.36568707 2.9527741e-39
0.94312209 0.5607127 0.34306711 1.1157466e-38
0.94257236 0.56259048 0.34797698 1.005114e-38
0.94015551 0.56242752 0.34794897 8.9425977e-39
0.93773866 0.5622645 0.34792095 5.07074e-39
0.93532181 0.56210154 0.34789306 1.1081833e-39
0.93799967 0.5676437 0.36168951 1.6624248e-39
0.93555611 0.5674789 0.36166114 2.3077774e-39
0.93491304 0.56935042 0.36656994 2.123382e-39
0.93245995 0.56918502 0.36654156 2.030822e-39
0.92822552 0.56698459 0.36157626 1.938262e-39
0.92755383 0.56885421 0.3664847 1.9375474e-39
0.92333841 0.5666551 0.36151963 2.1219386e-39
0.92089492 0.56649029 0.36149126 2.3056096e-39
0.91845137 0.56632555 0.36146289 2.8580561e-39
0.91774154 0.56819254 0.36637098 3.5019822e-39
0.91528845 0.56802714 0.36634248 2.8584163e-39
0.91420722 0.56948608 0.3702628 2.2144888e-39
0.91345167 0.57134998 0.37517029 2.1230078e-39
0.90928578 0.56915426 0.37020582 2.0308178e-39
0.90682513 0.56898832 0.37017733 1.9386264e-39
0.90436441 0.56882238 0.37014884 1.7553197e-39
0.90190375 0.5686565 0.37012023 1.9389949e-39
0.89236802 0.56265193 0.3562445 2.8595009e-39
0.88993406 0.56248784 0.35621625 3.5963498e-39
0.88750005 0.56232369 0.356188 3.4126915e-39
0.88668537 0.56418359 0.36109477 3.2286575e-39
0.88424188 0.56401879 0.36106652 3.2286519e-39
0.88179833 0.56385404 0.36103815 3.1364591e-39
0.87935477 0.56368929 0.3610099 3.1368178e-39
0.87691122 0.56352448 0.36098152 3.0446222e-39
0.87446773 0.56335974 0.36095327 3.0435432e-39
0.87358636 0.56521523 0.36585933 2.95027e-39
0.94411254 0.56180537 0.35204118 1.1249307e-38
0.94168806 0.56164187 0.35201317 1.1425741e-38
0.93926358 0.56147844 0.35198504 6.0880967e-39
0.9368391 0.56131494 0.3519569 6.5402383e-40
0.93805408 0.56520754 0.36180431 1.2950856e-39
0.93742073 0.56707013 0.3667137 1.9389991e-39
0.9349677 0.56690472 0.36668533 2.0315423e-39
0.93251461 0.56673932 0.36665684 2.0304647e-39
0.93148685 0.56819427 0.37057811 1.938269e-39
0.92902613 0.56802839 0.37054962 1.846079e-39
0.9251554 0.56624311 0.36657161 2.3066956e-39
0.92270231 0.56607771 0.36654311 2.6747565e-39
0.92164409 0.56753057 0.37046415 3.5949065e-39
0.91779625 0.56574684 0.36648625 4.5136286e-39
0.91844714 0.56922036 0.37534374 3.504164e-39
0.91597688 0.56905377 0.37531513 2.400322e-39
0.91350669 0.56888723 0.37528652 2.3073893e-39
0.91103649 0.56872064 0.37525779 2.1219316e-39
0.90856624 0.5685541 0.37522918 1.9379103e-39
0.90609598 0.56838751 0.37520057 1.662408e-39
0.90195858 0.56620324 0.37023598 2.0301115e-39
0.89081252 0.56392735 0.36617357 3.6885511e-39
0.88835943 0.56376195 0.36614519 3.3208447e-39
0.88590634 0.56359655 0.3661167 3.2290036e-39
0.88345325 0.56343114 0.36608833 3.1371681e-39
0.88100022 0.56326574 0.36605984 3.0453341e-39
0.87696564 0.56108838 0.36109644 2.9527783e-39
0.87452215 0.56092364 0.36106819 3.0428187e-39
0.94174206 0.55922472 0.35212713 1.1432911e-38
0.94115663 0.56108105 0.35703748 5.9022649e-39
0.93872261 0.56091696 0.35700923 3.6990496e-40
0.93992847 0.56478989 0.36685747 1.1085462e-39
0.93892372 0.56623882 0.37077934 1.7538918e-39
0.93826389 0.56809008 0.37568885 1.7542365e-39
0.93400234 0.56590694 0.37072235 1.7535232e-39
0.9333235 0.56775695 0.37563163 1.7535274e-39
0.93085325 0.56759042 0.37560302 1.6613388e-39
0.92838305 0.56742382 0.37557441 2.0304801e-39
0.92591286 0.56725729 0.3755458 2.3999787e-39
0.9234426 0.56709069 0.37551707 3.0439061e-39
0.92097235 0.56692415 0.37548846 3.6874889e-39
0.92022681 0.56876969 0.38039714 2.9528217e-39
0.91774702 0.5686025 0.38036841 2.2177384e-39
0.91526729 0.56843525 0.38033968 2.1226337e-39
0.91278756 0.56826806 0.38031083 2.0279409e-39
0.91030777 0.56810087 0.3802821 1.9364768e-39
0.90782803 0.56793362 0.38025337 1.8442853e-39
0.89542925 0.5670976 0.38010973 3.5048731e-39
0.88970995 0.56292033 0.37020904 3.3211965e-39
0.88596106 0.56115091 0.3662321 3.229354e-39
0.88478851 0.56258851 0.37015206 3.2297141e-39
0.8823278 0.56242257 0.37012357 3.1375213e-39
0.87860179 0.56065464 0.36614674 3.1371597e-39
0.8761487 0.56048924 0.36611837 3.0442452e-39
0.94882131 0.56444925 0.37100917 1.1427541e-38
0.94636065 0.56428331 0.37098068 5.8097302e-39
0.94389993 0.56411737 0.37095207 9.9775253e-41
0.94143921 0.56395143 0.37092358 8.3157815e-40
0.94078922 0.56579387 0.37583369 1.5676942e-39
0.93831897 0.56562734 0.37580496 1.5691264e-39
0.93584871 0.56546074 0.37577635 1.476935e-39
0.93516052 0.56730068 0.3806861 1.4769392e-39
0.93268073 0.56713349 0.38065737 1.4776594e-39
0.93020105 0.56696624 0.38062865 1.8460804e-39
0.92947471 0.56880355 0.38553768 2.1233862e-39
0.92524159 0.56663185 0.38057119 2.4936036e-39
0.9227618 0.56646466 0.38054246 2.7680451e-39
0.92200685 0.56830001 0.38545114 2.4010731e-39
0.91951764 0.56813216 0.38542229 2.0319122e-39
0.91702831 0.56796432 0.38539344 2.029736e-39
0.91284275 0.56579578 0.38042742 1.9368285e-39
0.91204977 0.56762862 0.38533574 1.9361152e-39
0.90956044 0.56746078 0.38530689 1.9364712e-39
0.90707123 0.56729293 0.38527805 2.212335e-39
0.89138472 0.56246257 0.37526113 3.2293652e-39
0.88730407 0.56030113 0.3702963 3.2293638e-39
0.88644433 0.56212944 0.37520391 3.2293638e-39
0.88397408 0.56196284 0.3751753 3.2290064e-39
0.88150394 0.56179631 0.37514657 3.2290036e-39
0.87620336 0.5580436 0.36623365 3.136808e-39
0.95257401 0.56599885 0.3810038 1.1524052e-38
0.94641542 0.56183004 0.37109631 5.8104645e-39
0.94395471 0.5616641 0.37106782 1.8407316e-40
0.94331443 0.56349772 0.37597841 6.4536941e-40
0.94084418 0.56333113 0.3759498 1.1981845e-39
0.93837398 0.56316459 0.37592119 1.1074336e-39
0.9376955 0.56499559 0.38083142 1.0163183e-39
0.93521577 0.5648284 0.38080269 1.108514e-39
0.93273604 0.5646612 0.38077396 1.2010683e-39
0.93025625 0.56449395 0.38074523 1.4772923e-39
0.92953014 0.56632185 0.38565475 1.7542421e-39
0.92704093 0.566154 0.3856259 1.9386376e-39
0.92455161 0.5659861 0.38559705 2.1223142e-39
0.92206234 0.56581825 0.3855682 1.9386474e-39
0.92128861 0.56764287 0.39047724 1.7542519e-39
0.9187898 0.56747437 0.39044827 1.753526e-39
0.91459447 0.56531471 0.38548166 1.7531631e-39
0.9121052 0.56514686 0.38545281 1.7531575e-39
0.90961593 0.56497902 0.38542396 1.8449874e-39
0.90712667 0.56481111 0.38539511 2.0293702e-39
0.8914398 0.55999982 0.37537724 3.5048773e-39
0.88896954 0.55983323 0.37534863 3.4123257e-39
0.8864994 0.55966669 0.37532002 3.3208489e-39
0.88562071 0.56148422 0.38022798 3.411967e-39
0.88314104 0.56131703 0.38019925 3.5963554e-39
0.95262927 0.56352663 0.38112038 1.161266e-38
0.95014954 0.56335938 0.38109165 5.9069649e-39
0.94766974 0.56319219 0.38106292 1.9196388e-40
0.94519001 0.563025 0.3810342 4.5954182e-40
0.94452131 0.56484711 0.38594478 7.3720911e-40
0.9420321 0.56467927 0.38591594 6.4574075e-40
0.93775082 0.56252337 0.38094801 4.6350609e-40
0.93527102 0.56235617 0.38091928 7.3937271e-40
0.93456423 0.56417572 0.38582939 9.2376397e-40
0.9320749 0.56400788 0.38580054 1.1081552e-39
0.92958564 0.56384003 0.38577169 1.2925521e-39
0.92709637 0.56367218 0.38574284 1.3847547e-39
0.92634189 0.56548858 0.3906526 1.4773091e-39
0.92556834 0.56730372 0.39556211 1.4773119e-39
0.92306 0.56713456 0.39553303 1.4769462e-39
0.92055172 0.5669654 0.39550394 1.5684173e-39
0.91634667 0.56481457 0.39053684 1.5694921e-39
0.9138478 0.56464612 0.39050788 1.6624024e-39
0.91134906 0.56447762 0.39047891 1.6616835e-39
0.90885019 0.56430912 0.39044994 1.8457119e-39
0.88902462 0.55737042 0.37546474 3.5945702e-39
0.88815576 0.55917919 0.3803733 3.4108964e-39
0.88567603 0.559012 0.38034457 3.6856826e-39
0.88319623 0.55884475 0.38031584 3.8707759e-39
0.95638335 0.56501925 0.39111763 1.17088e-38
0.95388448 0.56485075 0.39108866 5.9048139e-39
0.94955534 0.56270111 0.38611954 1.8658149e-40
0.94706607 0.56253326 0.3860907 4.6061381e-40
0.94457674 0.56236541 0.38606185 8.2832294e-40
0.94388926 0.56417674 0.39097279 5.5354232e-40
0.9413904 0.56400824 0.39094383 3.7059019e-40
0.93889165 0.56383979 0.39091486 6.4681415e-40
0.93639278 0.56367129 0.39088589 9.2232484e-40
0.93389398 0.56350279 0.39085692 1.014882e-39
0.92964113 0.56135827 0.38588876 1.107086e-39
0.9271518 0.56119043 0.38585991 1.2914843e-39
0.92639756 0.56299728 0.39077014 1.3843946e-39
0.92734969 0.56677699 0.40061897 1.3840345e-39
0.92483187 0.56660724 0.40058976 1.4751483e-39
0.92231393 0.56643742 0.40056056 1.4758616e-39
0.91979611 0.56626767 0.40053147 1.5687747e-39
0.91727829 0.56609792 0.40050226 1.5691348e-39
0.91308254 0.56395721 0.39553469 1.4776622e-39
0.9105742 0.56378812 0.39550561 1.9357663e-39
0.90806592 0.56361896 0.39547652 2.3938718e-39
0.95828855 0.56450093 0.39617592 1.1706295e-38
0.95210016 0.56038713 0.38626546 6.0006053e-39
0.94961083 0.56021929 0.38623661 1.9411907e-40
0.9471215 0.56005144 0.38620776 5.5173184e-40
0.94644374 0.561854 0.3911193 8.279614e-40
0.94394493 0.5616855 0.39109033 5.5246052e-40
0.94144607 0.561517 0.39106137 2.7803163e-40
0.94073021 0.56331694 0.39597243 5.5425698e-40
0.93822181 0.56314784 0.39594334 8.3012501e-40
0.93571353 0.56297868 0.39591426 9.2232204e-40
0.93320519 0.56280959 0.39588517 9.2268638e-40
0.93069685 0.56264043 0.39585608 1.1063644e-39
0.92992365 0.5644365 0.40076655 1.291113e-39
0.92913151 0.56623131 0.40567654 1.3822338e-39
0.92660415 0.5660609 0.40564734 1.3829527e-39
0.92407674 0.56589049 0.40561801 1.4747896e-39
0.92154932 0.56572008 0.40558869 1.5680572e-39
0.91902196 0.56554967 0.40555936 1.4755028e-39
0.91481644 0.56341779 0.40059143 1.2922004e-39
0.91229856 0.56324804 0.40056223 2.0254592e-39
0.90978074 0.56307822 0.40053314 2.7630018e-39
0.9583444 0.5620001 0.39629382 1.1804593e-38
0.95583606 0.561831 0.39626473 6.1828511e-39
0.95149702 0.55969965 0.39129466 5.5716187e-40
0.94899821 0.55953121 0.39126569 8.2867326e-40
0.94649941 0.55936271 0.39123672 1.1034651e-39
0.9440006 0.55919421 0.39120775 8.2832013e-40
0.94150174 0.5590257 0.39117879 6.4536801e-40
0.94256914 0.56277514 0.40103084 6.4572814e-40
0.94005126 0.56260532 0.40100163 6.4644701e-40
0.93753338 0.56243557 0.40097243 7.3828391e-40
0.93677008 0.56422281 0.40588325 9.219591e-40
0.93424261 0.5640524 0.40585393 1.1981859e-39
0.93171525 0.56388199 0.40582472 1.5662509e-39
0.92918783 0.56371152 0.4057954 1.4747784e-39
0.92666042 0.56354111 0.40576607 1.4755042e-39
0.92413306 0.5633707 0.40573686 1.4762287e-39
0.92160559 0.56320029 0.40570754 1.5687761e-39
0.91907823 0.56302989 0.40567821 1.4765748e-39
0.91655082 0.56285942 0.40564901 1.4762329e-39
0.9140234 0.56268901 0.40561968 1.7496024e-39
0.91149604 0.5625186 0.40559036 2.0236487e-39
0.95589197 0.55933022 0.39638263 6.3694004e-39
0.95155269 0.55720842 0.39141208 8.3661862e-40
0.94905388 0.55703992 0.39138323 1.1023875e-39
0.94655508 0.55687141 0.39135426 1.2867787e-39
0.94405627 0.55670291 0.39132529 1.1031106e-39
0.94155741 0.55653441 0.39129633 9.2051436e-40
0.94262522 0.56026483 0.40114921 7.3648464e-40
0.94010735 0.56009507 0.40112001 4.6205855e-40
0.93935376 0.56187344 0.40603143 6.4609388e-40
0.93682635 0.56170303 0.4060021 8.3084387e-40
0.93429893 0.56153262 0.40597278 1.2903829e-39
0.93177152 0.56136221 0.40594357 1.7502862e-39
0.93097031 0.56313729 0.41085452 1.6591752e-39
0.9284333 0.56296623 0.41082507 1.4762287e-39
0.92589641 0.56279516 0.41079563 1.5687887e-39
0.92335951 0.5626241 0.4107663 1.5687803e-39
0.9191345 0.5605101 0.40579706 1.5687732e-39
0.91660714 0.56033963 0.40576774 1.5673425e-39
0.91407973 0.56016922 0.40573853 1.472284e-39
0.95845616 0.55699855 0.39652961 1.1894645e-38
0.95594782 0.55682945 0.39650065 6.7324446e-39
0.95160836 0.55471712 0.39152962 1.6545327e-39
0.94910955 0.55454868 0.39150065 1.9296244e-39
0.94661075 0.55438018 0.39147168 2.2976867e-39
0.94411194 0.55421168 0.39144272 2.0272052e-39
0.94340622 0.55598378 0.39635521 1.8403029e-39
0.94089782 0.55581462 0.39632624 1.1048986e-39
0.94016349 0.55758476 0.40123838 3.7058179e-40
0.93941009 0.55935365 0.40615016 6.4645542e-40
0.93688262 0.55918324 0.40612096 1.0155939e-39
0.93435526 0.55901283 0.40609163 1.0152379e-39
0.93182784 0.55884242 0.4060623 1.1081608e-39
0.93102682 0.56060803 0.41097373 1.1078119e-39
0.9284898 0.56043696 0.4109444 1.2014481e-39
0.92595291 0.5602659 0.41091496 1.3847659e-39
0.92341602 0.56009483 0.41088551 1.5691446e-39
0.92087907 0.55992383 0.41085619 1.4769406e-39
0.91666341 0.55781984 0.40588659 1.4765762e-39
0.91413605 0.55764943 0.40585738 1.1978355e-39
0.91160864 0.55747902 0.40582806 1.0120514e-39
0.95349538 0.55415952 0.39658946 2.4010647e-39
0.9509871 0.55399042 0.39656037 2.8476305e-39
0.94666642 0.55188888 0.39158922 3.2236128e-39
0.94597042 0.55365211 0.39650232 3.0514507e-39
0.94346207 0.55348301 0.39647323 2.7669409e-39
0.94273746 0.55524427 0.40138596 1.4725993e-39
0.94021952 0.55507451 0.40135676 1.8655206e-40
0.93946636 0.55683392 0.40626901 6.4537782e-40
0.936939 0.55666345 0.40623981 1.1052728e-39
0.93441153 0.55649304 0.40621048 8.3012641e-40
0.93188417 0.55632263 0.40618116 4.6386763e-40
0.93108332 0.55807877 0.41109306 6.4646943e-40
0.92854637 0.5579077 0.41106361 8.3158376e-40
0.92600942 0.55773664 0.41103429 1.1989342e-39
0.92347252 0.55756557 0.41100484 1.4762273e-39
0.92093563 0.5573945 0.4109754 1.3843862e-39
0.91839862 0.55722344 0.41094607 1.2918262e-39
0.91586173 0.55705237 0.41091663 1.0134429e-39
0.91332483 0.55688131 0.4108873 6.5152952e-40
0.9579007 0.55375266 0.40167934 7.3796189e-39
0.95538282 0.55358291 0.40165025 2.9581859e-39
0.95104301 0.55148965 0.39667827 2.8555324e-39
0.94853461 0.55132049 0.3966493 2.8606121e-39
0.94602633 0.55115134 0.39662021 3.1401221e-39
0.94351792 0.55098224 0.39659113 3.3251607e-39
0.94100958 0.55081308 0.39656204 2.0271996e-39
0.94027567 0.5525642 0.40147513 7.3720491e-40
0.93775773 0.55239445 0.40144593 1.1045539e-39
0.93699527 0.55414367 0.40635854 1.4704596e-39
0.93446785 0.55397326 0.40632933 3.316135e-39
0.93194044 0.55380285 0.40630001 5.1478269e-39
0.92941308 0.55363244 0.40627068 4.8791405e-39
0.92860287 0.55537844 0.41118294 4.5961104e-39
0.92606592 0.55520737 0.4111535 2.8551919e-39
0.92352903 0.55503631 0.41112417 1.2014327e-39
0.92099214 0.55486524 0.41109473 1.2007124e-39
0.91677606 0.55278033 0.40612429 1.2932584e-39
0.91424865 0.55260992 0.40609497 9.2232064e-40
0.95795685 0.55124241 0.40179771 7.6569176e-39
0.95543897 0.5510726 0.40176862 3.414848e-39
0.95109886 0.54898882 0.39679629 2.9394674e-39
0.94677776 0.54690629 0.39182419 2.4878653e-39
0.94608217 0.54865056 0.39673811 3.2315596e-39
0.94178009 0.54656929 0.39176625 3.8679075e-39
0.94106543 0.54831225 0.39667994 2.5731988e-39
0.9403317 0.55005395 0.40159351 1.2882179e-39
0.93781388 0.54988414 0.4015643 1.5644418e-39
0.93529594 0.54971439 0.40153521 1.8475293e-39
0.93452418 0.55145347 0.40644819 5.9077104e-39
0.93199676 0.55128306 0.40641886 9.8559164e-39
0.92774236 0.54920506 0.40144759 9.1266121e-39
0.92694199 0.55094224 0.40636021 8.3811353e-39
0.92441452 0.55077177 0.406331 4.6075969e-39
0.92188716 0.55060136 0.40630168 8.3481235e-40
0.91935974 0.55043095 0.40627235 1.1070945e-39
0.91683233 0.55026054 0.40624315 1.2914675e-39
0.91430497 0.55009013 0.40621382 9.2160037e-40
0.95801294 0.5487321 0.40191609 8.1153762e-39
0.95549506 0.54856235 0.401887 4.3292513e-39
0.95115471 0.54648811 0.39691418 2.8504933e-39
0.94683337 0.54441506 0.39194161 1.4701176e-39
0.94613802 0.54614979 0.39685601 1.9343426e-39
0.94362974 0.54598069 0.39682704 2.483901e-39
0.94290566 0.54771346 0.40174109 1.8392393e-39
0.94038785 0.54754364 0.40171188 1.1960237e-39
0.93786991 0.54737389 0.40168267 1.7484632e-39
0.93710792 0.54910409 0.40659624 2.3042377e-39
0.93458045 0.54893368 0.40656692 5.5404595e-39
0.93205309 0.54876328 0.40653771 8.7715553e-39
0.92952567 0.54859287 0.40650839 7.8460172e-39
0.92699826 0.54842246 0.40647906 6.9286656e-39
0.9244709 0.54825199 0.40644985 4.1516452e-39
0.92194343 0.54808158 0.40642053 1.3815247e-39
0.91941607 0.54791117 0.4063912 1.2918529e-39
0.91688865 0.54774076 0.40636188 1.2014299e-39
0.91269124 0.54567611 0.40139097 8.3047813e-40
0.95806903 0.54622185 0.40203458 8.6724947e-39
0.95555115 0.5460521 0.40200537 5.1593609e-39
0.95121062 0.54398727 0.39703208 2.7554278e-39
0.94870228 0.54381812 0.397003 3.6807627e-40
0.94619393 0.54364902 0.39697403 7.3578959e-40
0.94368559 0.54347986 0.39694494 1.1045581e-39
0.94296181 0.54520321 0.40185946 1.1038336e-39
0.94044387 0.5450334 0.40183026 1.0123597e-39
0.93792605 0.54486364 0.40180105 1.9296412e-39
0.93716419 0.54658437 0.4067151 2.7666102e-39
0.93463677 0.54641396 0.40668577 5.2702513e-39
0.93210936 0.54624355 0.40665644 7.6572581e-39
0.92785454 0.54418451 0.40168434 6.5563112e-39
0.92705458 0.54590267 0.40659791 5.3523646e-39
0.92452717 0.54573226 0.40656859 3.5963302e-39
0.92199975 0.54556185 0.40653938 1.8450028e-39
0.91947234 0.54539144 0.40651006 1.4769476e-39
0.91694498 0.54522097 0.40648073 1.1085112e-39
