# .PCD v0.7 - Point Cloud Data file format
VERSION 0.7
FIELDS x y z rgb
SIZE 4 4 4 4
TYPE F F F F
COUNT 1 1 1 1
WIDTH 991
HEIGHT 1
VIEWPOINT 0 0 0 1 0 0 0
POINTS 991
DATA ascii
-0.095669448 0.56257761 0.46682531 1.0973435e-38
-0.098341703 0.56239742 0.46679431 1.1157109e-38
-0.10101396 0.56221724 0.46676332 1.1341137e-38
-0.10122472 0.5598253 0.46086532 1.1341137e-38
-0.10388553 0.55964589 0.46083444 1.134114e-38
-0.10654634 0.55946642 0.46080357 1.1432978e-38
-0.10920715 0.55928701 0.46077281 1.1432976e-38
-0.11437523 0.56131631 0.46660858 1.1432973e-38
-0.11704749 0.56113613 0.46657759 1.143333e-38
-0.11971974 0.56095594 0.4665466 1.1524805e-38
-0.122392 0.5607757 0.4665156 1.1617001e-38
-0.12251133 0.5583899 0.46061856 1.1525167e-38
-0.12517214 0.55821049 0.4605878 1.1341496e-38
-0.12783295 0.55803108 0.46055692 1.1249303e-38
-0.13049376 0.55785167 0.46052605 1.1157828e-38
-0.13315457 0.55767226 0.46049529 1.1341502e-38
-0.13581544 0.55749285 0.46046442 1.1525175e-38
-0.13847625 0.55731344 0.46043354 1.1617014e-38
-0.1437701 0.55933422 0.46626788 1.170956e-38
-0.14644241 0.55915403 0.46623689 1.1709911e-38
-0.011815012 0.56753564 0.4728356 9.5497089e-41
-0.014496803 0.5673548 0.47280449 5.1716335e-39
-0.017178595 0.56717396 0.47277337 1.0236571e-38
-0.018114358 0.56513894 0.46784896 1.0142935e-38
-0.022542179 0.56681228 0.47271127 1.0050389e-38
-0.02522397 0.56663144 0.47268015 9.9585588e-39
-0.027905762 0.56645066 0.47264904 9.959279e-39
-0.030587554 0.56626981 0.47261804 1.0051117e-38
-0.033269346 0.56608897 0.47258693 1.023479e-38
-0.035951138 0.56590813 0.47255582 1.023515e-38
-0.036820173 0.56387758 0.46763223 1.0235509e-38
-0.041314721 0.56554645 0.47249371 1.0327343e-38
-0.042164683 0.56351721 0.46757025 1.041954e-38
-0.044836938 0.56333703 0.46753925 1.0419541e-38
-0.047509193 0.56315684 0.46750838 1.0419548e-38
-0.050181448 0.56297666 0.46747738 1.0419554e-38
-0.052853703 0.56279647 0.46744639 1.041991e-38
-0.055525959 0.56261629 0.46741539 1.0511741e-38
-0.058198214 0.5624361 0.46738452 1.0695769e-38
-0.060870469 0.56225592 0.46735352 1.0603932e-38
-0.063542783 0.56207573 0.46732253 1.0604288e-38
-0.066215038 0.56189555 0.46729153 1.0696121e-38
-0.068887293 0.5617153 0.46726066 1.0788315e-38
-0.071559548 0.56153512 0.46722966 1.0788314e-38
-0.074231803 0.56135494 0.46719867 1.0880511e-38
-0.078859746 0.56301481 0.47205859 1.0971989e-38
-0.079576313 0.56099457 0.46713668 1.1064186e-38
-0.082248569 0.56081438 0.46710581 1.1064548e-38
-0.086905122 0.56247234 0.47196537 1.1064905e-38
-0.089586914 0.5622915 0.47193426 1.1064904e-38
-0.092268705 0.56211066 0.47190326 1.1156742e-38
-0.094950497 0.56192982 0.47187215 1.1065268e-38
-0.095609903 0.55991346 0.46695095 1.0973797e-38
-0.098282158 0.55973327 0.46691996 1.1157472e-38
-0.098504663 0.55735189 0.46102124 1.13415e-38
-0.10116547 0.55717248 0.46099037 1.1341497e-38
-0.10382628 0.55699307 0.46095949 1.1341144e-38
-0.1064871 0.5568136 0.46092874 1.1341148e-38
-0.10914791 0.55663419 0.46089786 1.1432621e-38
-0.11431569 0.5586521 0.46673411 1.1432974e-38
-0.11698794 0.55847192 0.46670324 1.1525527e-38
-0.1196602 0.55829173 0.46667224 1.1525167e-38
-0.12233245 0.55811155 0.46664125 1.1617008e-38
-0.12245208 0.55573714 0.46074373 1.1525178e-38
-0.12511289 0.55555773 0.46071285 1.1525174e-38
-0.1277737 0.55537832 0.46068197 1.1433334e-38
-0.13043451 0.55519891 0.46065122 1.134186e-38
-0.13309532 0.5550195 0.46062034 1.1525174e-38
-0.13575619 0.55484003 0.46058947 1.1708133e-38
-0.1410383 0.55685019 0.46642452 1.1708497e-38
-0.14590454 0.55849403 0.47128171 1.1801042e-38
-0.14858633 0.55831319 0.47125059 1.1709198e-38
-0.011755288 0.56486189 0.4729616 1.0123681e-40
-0.014437079 0.56468105 0.47293049 5.176297e-39
-0.017118871 0.56450021 0.4728995 1.0141148e-38
-0.018054843 0.56247473 0.4679746 9.8677896e-39
-0.020727098 0.56229454 0.46794361 9.5915727e-39
-0.023399353 0.56211436 0.46791273 9.7745332e-39
-0.026071638 0.56193417 0.46788174 9.8667247e-39
-0.03052783 0.56359607 0.47274405 1.0050393e-38
-0.033209622 0.56341523 0.47271305 1.0234786e-38
-0.035891414 0.56323439 0.47268194 1.0235147e-38
-0.038573205 0.56305361 0.47265083 1.014367e-38
-0.041254997 0.56287277 0.47261983 1.0327343e-38
-0.043936789 0.56269193 0.47258872 1.0419174e-38
-0.044777453 0.56067282 0.4676649 1.0603201e-38
-0.047449648 0.56049263 0.46763402 1.0694686e-38
-0.050121903 0.56031245 0.46760303 1.060286e-38
-0.052794158 0.56013227 0.46757203 1.0511741e-38
-0.055466413 0.55995208 0.46754104 1.0603934e-38
-0.058138669 0.5597719 0.46751016 1.0603934e-38
-0.060810924 0.55959171 0.46747917 1.0696128e-38
-0.063483238 0.55941153 0.46744817 1.0696125e-38
-0.068072855 0.56106442 0.47230905 1.0696124e-38
-0.070754647 0.56088358 0.47227794 1.0696481e-38
-0.071500003 0.55887091 0.46735531 1.0880509e-38
-0.076118231 0.56052196 0.47221571 1.0972346e-38
-0.078800023 0.56034112 0.47218472 1.1064183e-38
-0.081481814 0.56016028 0.4721536 1.1064546e-38
-0.084163606 0.55997944 0.47212249 1.106455e-38
-0.086845398 0.5597986 0.4720915 1.0973072e-38
-0.08952719 0.55961776 0.47206038 1.0973071e-38
-0.092208982 0.55943698 0.47202927 1.0973431e-38
-0.092878044 0.55742943 0.46710759 1.0973792e-38
-0.093123674 0.55505794 0.46120793 1.0882317e-38
-0.095784485 0.55487853 0.46117717 1.1065991e-38
-0.098445356 0.55469906 0.4611463 1.1249661e-38
-0.10110617 0.55451965 0.46111542 1.1341496e-38
-0.10376698 0.55434024 0.46108466 1.1341499e-38
-0.10642779 0.55416083 0.46105379 1.1341143e-38
-0.1090886 0.55398142 0.46102291 1.134114e-38
-0.11174947 0.55380201 0.46099216 1.1432973e-38
-0.1169284 0.55580771 0.46682888 1.1525166e-38
-0.11960065 0.55562752 0.46679789 1.1617358e-38
-0.12227291 0.55544734 0.46676689 1.1617004e-38
-0.12494516 0.55526716 0.4667359 1.1617008e-38
-0.12761742 0.55508697 0.46670502 1.1617007e-38
-0.1277144 0.55272549 0.46080714 1.1617364e-38
-0.13037521 0.55254608 0.46077627 1.1525529e-38
-0.13303602 0.55236667 0.46074551 1.1708842e-38
-0.1383065 0.55436623 0.46658105 1.1892159e-38
-0.14097875 0.55418599 0.46655017 1.1891804e-38
-0.14365101 0.5540058 0.46651918 1.1800682e-38
-0.14367932 0.55164897 0.46062213 1.1708842e-38
-0.14634013 0.55146956 0.46059126 1.1525527e-38
-0.014377326 0.56200737 0.47305661 4.9847339e-39
-0.017059118 0.56182653 0.47302562 9.9567609e-39
-0.017995298 0.55981052 0.46810025 9.7752381e-39
-0.020667553 0.55963033 0.46806926 9.6830523e-39
-0.023339808 0.55945015 0.46803838 9.7748948e-39
-0.026012093 0.55926996 0.46800739 9.9578413e-39
-0.030468047 0.56092238 0.47287017 1.0050745e-38
-0.033149838 0.56074154 0.47283906 1.0235139e-38
-0.03583163 0.5605607 0.47280806 1.0143667e-38
-0.036701083 0.55854917 0.46788353 1.0052551e-38
-0.041195273 0.56019902 0.47274584 1.0235506e-38
-0.043877065 0.56001818 0.47271484 1.0418451e-38
-0.044717908 0.55800861 0.46779054 1.0510637e-38
-0.047390103 0.55782843 0.46775967 1.0602483e-38
-0.050062358 0.55764824 0.46772867 1.0511018e-38
-0.052734613 0.55746806 0.46769768 1.0511378e-38
-0.055406868 0.55728787 0.46766669 1.0603572e-38
-0.058079123 0.55710769 0.46763581 1.0603574e-38
-0.060751379 0.5569275 0.46760482 1.0604292e-38
-0.063423693 0.55674732 0.46757382 1.0696485e-38
-0.068013072 0.55839074 0.47243506 1.0696484e-38
-0.070694864 0.5582099 0.47240406 1.0696124e-38
-0.073376656 0.55802906 0.47237295 1.0880151e-38
-0.076058447 0.55784822 0.47234184 1.0972346e-38
-0.078740239 0.55766737 0.47231072 1.1064183e-38
-0.081422031 0.55748653 0.47227973 1.1064548e-38
-0.082129478 0.55548596 0.4673571 1.1064911e-38
-0.086785614 0.55712491 0.4722175 1.1064911e-38
-0.089467406 0.55694407 0.47218651 1.1065268e-38
-0.092149198 0.55676323 0.47215539 1.1065628e-38
-0.09483099 0.55658239 0.47212428 1.1157463e-38
-0.093064427 0.55240512 0.4613331 1.1249658e-38
-0.095725238 0.55222571 0.46130222 1.1249656e-38
-0.098386109 0.5520463 0.46127146 1.1250016e-38
-0.10104692 0.55186689 0.46124059 1.1249659e-38
-0.10370773 0.55168748 0.46120971 1.1341495e-38
-0.10636854 0.55150801 0.46117896 1.1432971e-38
-0.10902935 0.5513286 0.46114808 1.1432971e-38
-0.11169022 0.55114919 0.46111721 1.1525166e-38
-0.11896712 0.55495489 0.47184461 1.1616998e-38
-0.11954111 0.55296332 0.46692353 1.1617354e-38
-0.12221336 0.55278313 0.46689254 1.1617e-38
-0.12488562 0.55260295 0.46686155 1.1617002e-38
-0.12755787 0.55242276 0.46683055 1.1617004e-38
-0.12765515 0.55007267 0.4609322 1.152517e-38
-0.13031596 0.54989326 0.46090144 1.1525168e-38
-0.13297677 0.54971385 0.46087056 1.1617002e-38
-0.13563764 0.54953444 0.46083969 1.1800318e-38
-0.14091921 0.55152178 0.46667582 1.1708485e-38
-0.14359146 0.55134159 0.46664482 1.1708486e-38
-0.14362007 0.54899615 0.46074718 1.1617368e-38
-0.14628088 0.54881674 0.46071643 1.1617721e-38
-0.014317572 0.55933362 0.47318274 4.8964802e-39
-0.019082427 0.5613445 0.47902542 9.6798251e-39
-0.019681156 0.558972 0.47312063 9.6848543e-39
-0.022362947 0.55879116 0.47308952 9.6841355e-39
-0.025044739 0.55861032 0.4730584 9.8674463e-39
-0.027726531 0.55842948 0.47302729 1.0050754e-38
-0.028624773 0.55642557 0.46810204 1.0142944e-38
-0.033090115 0.5580678 0.47296518 1.0143306e-38
-0.035771906 0.55788696 0.47293407 1.0051832e-38
-0.036641538 0.55588496 0.46800917 9.960358e-39
-0.04113549 0.55752534 0.47287196 1.0144032e-38
-0.043817282 0.5573445 0.47284085 1.032734e-38
-0.046499074 0.55716366 0.47280985 1.0418814e-38
-0.047330618 0.55516422 0.46788532 1.0419541e-38
-0.050002873 0.55498403 0.46785432 1.0511386e-38
-0.052675128 0.55480385 0.46782333 1.0511742e-38
-0.055347383 0.55462366 0.46779233 1.0603218e-38
-0.058019638 0.55444348 0.46776134 1.0603934e-38
-0.060691893 0.55426329 0.46773046 1.0604292e-38
-0.063364208 0.55408311 0.46769947 1.0604651e-38
-0.067953348 0.55571699 0.47256118 1.0696845e-38
-0.068708718 0.55372268 0.46763748 1.0696483e-38
-0.071380973 0.55354249 0.4676066 1.0879791e-38
-0.075998724 0.55517453 0.47246796 1.0972348e-38
-0.078680515 0.55499369 0.47243685 1.1064187e-38
-0.079397738 0.55300194 0.46751362 1.1064549e-38
-0.082069993 0.55282176 0.46748275 1.1157106e-38
-0.082361817 0.55046999 0.46158153 1.1157105e-38
-0.085022688 0.55029058 0.46155065 1.1156745e-38
-0.087683499 0.55011117 0.4615199 1.1157105e-38
-0.09034431 0.54993176 0.46148902 1.1341134e-38
-0.093005121 0.54975235 0.46145815 1.1524805e-38
-0.095665932 0.54957289 0.46142739 1.1341134e-38
-0.095877826 0.54722661 0.45552713 1.1157822e-38
-0.10098761 0.54921407 0.46136564 1.12493e-38
-0.10364842 0.54903466 0.46133488 1.1341493e-38
-0.10630924 0.54885519 0.46130401 1.1432969e-38
-0.10897005 0.54867578 0.46127313 1.1525166e-38
-0.11163092 0.54849637 0.46124238 1.1617363e-38
-0.11890739 0.5522812 0.47197074 1.1617364e-38
-0.11948162 0.55029911 0.46704918 1.1617365e-38
-0.12215388 0.55011892 0.46701819 1.152517e-38
-0.12482613 0.54993874 0.46698719 1.1525527e-38
-0.12749839 0.54975855 0.4669562 1.1525168e-38
-0.12759584 0.54741991 0.46105736 1.1524811e-38
-0.13284296 0.54939818 0.46689433 1.143369e-38
-0.13551521 0.549218 0.46686333 1.1525882e-38
-0.13818747 0.54903781 0.46683234 1.1617363e-38
-0.14085972 0.54885757 0.46680146 1.1617367e-38
-0.14353198 0.54867738 0.46677047 1.1617367e-38
-0.14620429 0.5484972 0.46673948 1.1617727e-38
-0.14887649 0.54831702 0.46670848 1.1617723e-38
-0.024408847 0.55829614 0.47908968 9.7770542e-39
-0.024984986 0.55593663 0.47318453 9.9599965e-39
-0.027666777 0.55575579 0.47315341 1.0143309e-38
-0.030348539 0.55557495 0.4731223 1.0142949e-38
-0.033030331 0.55539411 0.4730913 1.0234427e-38
-0.035712123 0.55521327 0.47306019 1.0143309e-38
-0.038393974 0.55503249 0.47302908 1.014403e-38
-0.041075766 0.55485165 0.47299808 1.0327706e-38
-0.041926563 0.55286044 0.46807283 1.0511378e-38
-0.044598818 0.55268025 0.46804184 1.0511378e-38
-0.047271073 0.55250007 0.46801084 1.0512105e-38
-0.049943328 0.55231982 0.46797997 1.0512114e-38
-0.052615583 0.55213964 0.46794897 1.0512826e-38
-0.055287838 0.55195946 0.46791798 1.0512461e-38
-0.057960093 0.55177927 0.46788698 1.0604654e-38
-0.060632348 0.55159909 0.46785611 1.0604292e-38
-0.065211833 0.55322415 0.4727183 1.0695771e-38
-0.067893624 0.55304331 0.4726873 1.0696131e-38
-0.070575416 0.55286247 0.47265619 1.0787961e-38
-0.073257208 0.55268168 0.47262508 1.0880148e-38
-0.075939 0.55250084 0.47259408 1.0972349e-38
-0.076665878 0.55051798 0.46767026 1.0972355e-38
-0.079338193 0.55033779 0.46763927 1.1064552e-38
-0.082010448 0.55015761 0.46760827 1.1156747e-38
-0.086666167 0.55177748 0.47246975 1.1157105e-38
-0.089347959 0.55159664 0.47243863 1.1157103e-38
-0.087624252 0.54745841 0.46164495 1.1157105e-38
-0.092699468 0.54943681 0.46748441 1.124894e-38
-0.092945874 0.54709959 0.46158332 1.1432971e-38
-0.095606685 0.54692012 0.46155244 1.12493e-38
-0.095818818 0.54458517 0.4556517 1.1157824e-38
-0.10092837 0.5465613 0.46149081 1.1249658e-38
-0.10358918 0.54638189 0.46145993 1.134149e-38
-0.10624999 0.54620242 0.46142906 1.1433323e-38
-0.1089108 0.54602301 0.4613983 1.1524805e-38
-0.11407757 0.54799533 0.4672367 1.152517e-38
-0.11674982 0.54781514 0.4672057 1.1617371e-38
-0.11942208 0.54763496 0.46717483 1.1433347e-38
-0.12209433 0.54745471 0.46714383 1.1341147e-38
-0.12476659 0.54727453 0.46711284 1.1433334e-38
-0.12743884 0.54709435 0.46708184 1.152517e-38
-0.12753659 0.54476708 0.46118242 1.1525168e-38
-0.13278341 0.54673398 0.46701998 1.1525524e-38
-0.13545567 0.54655379 0.46698898 1.1525879e-38
-0.13812792 0.54637361 0.46695799 1.1617361e-38
-0.14298379 0.54798001 0.47181708 1.1617724e-38
-0.14347243 0.54601324 0.46689612 1.1709561e-38
-0.14614475 0.54583305 0.46686512 1.1709562e-38
-0.14881694 0.54565287 0.46683413 1.170956e-38
-0.024348855 0.55561101 0.47921628 9.7770486e-39
-0.027042091 0.55542946 0.47918504 1.0051829e-38
-0.027607054 0.55308211 0.47327954 1.0234788e-38
-0.030288815 0.55290127 0.47324842 1.0234794e-38
-0.032970607 0.55272043 0.47321731 1.0234432e-38
-0.035652399 0.55253959 0.47318631 1.023443e-38
-0.03833425 0.55235875 0.4731552 1.0235148e-38
-0.041016042 0.55217791 0.47312409 1.0511015e-38
-0.043697834 0.55199707 0.47309309 1.0695048e-38
-0.044539273 0.55001599 0.46816748 1.0602856e-38
-0.047211528 0.5498358 0.46813649 1.0511744e-38
-0.049883783 0.54965562 0.46810561 1.0512467e-38
-0.052556038 0.54947543 0.46807462 1.0512821e-38
-0.055228293 0.54929525 0.46804363 1.0512819e-38
-0.057900548 0.54911506 0.46801263 1.0512813e-38
-0.060572803 0.54893488 0.46798176 1.0604284e-38
-0.063245118 0.54875469 0.46795076 1.0696124e-38
-0.067833841 0.55036962 0.47281331 1.0787963e-38
-0.070515633 0.55018878 0.47278231 1.0879791e-38
-0.073197424 0.55000794 0.4727512 1.0879784e-38
-0.075879216 0.5498271 0.47272009 1.0880151e-38
-0.078561008 0.54964626 0.47268909 1.0971996e-38
-0.079278648 0.54767352 0.46776491 1.1064194e-38
-0.083924592 0.54928464 0.47262686 1.1156393e-38
-0.086606383 0.5491038 0.47259575 1.1156746e-38
-0.087295413 0.54713297 0.46767205 1.115674e-38
-0.087564945 0.54480553 0.46177 1.1157102e-38
-0.092639923 0.5467726 0.46761006 1.1248582e-38
-0.092886567 0.54444671 0.46170837 1.12493e-38
-0.095547378 0.5442673 0.46167761 1.1249303e-38
-0.098208249 0.54408789 0.46164674 1.1157825e-38
-0.10086906 0.54390848 0.46161586 1.1249661e-38
-0.10352987 0.54372907 0.4615851 1.1249659e-38
-0.10619068 0.5435496 0.46155423 1.1433329e-38
-0.10885149 0.54337019 0.46152335 1.1524808e-38
-0.11151236 0.54319078 0.4614926 1.1524454e-38
-0.11669028 0.54515088 0.46733135 1.1525173e-38
-0.11936253 0.54497063 0.46730047 1.1341503e-38
-0.12203479 0.54479045 0.46726948 1.1157829e-38
-0.12470704 0.54461026 0.46723849 1.1341139e-38
-0.1273793 0.54443008 0.46720749 1.1525527e-38
-0.13005161 0.54424989 0.46717662 1.1525529e-38
-0.1301381 0.54193485 0.46127671 1.1525886e-38
-0.13539612 0.54388952 0.46711463 1.1525884e-38
-0.13806838 0.54370934 0.46708363 1.1525529e-38
-0.14074063 0.54352915 0.46705264 1.1617727e-38
-0.14341289 0.54334897 0.46702176 1.1709567e-38
-0.1460852 0.54316878 0.46699077 1.1801406e-38
-0.1487574 0.5429886 0.46695977 1.1801401e-38
-0.022183716 0.55077004 0.47346777 9.7759668e-39
-0.024865508 0.5505892 0.47343665 1.0051109e-38
-0.0275473 0.55040836 0.47340566 1.0325909e-38
-0.030229092 0.55022752 0.47337455 1.0418115e-38
-0.032910883 0.55004668 0.47334343 1.0509586e-38
-0.035592675 0.54986584 0.47331232 1.0326625e-38
-0.038274467 0.54968506 0.47328132 1.0235148e-38
-0.040956259 0.54950422 0.47325021 1.0327341e-38
-0.043638051 0.54932338 0.4732191 1.0511377e-38
-0.044479787 0.54735184 0.46829313 1.0419904e-38
-0.047151983 0.54717165 0.46826214 1.0419547e-38
-0.049824238 0.54699141 0.46823126 1.0512101e-38
-0.052496493 0.54681122 0.46820027 1.0512458e-38
-0.055168748 0.54663104 0.46816927 1.0512457e-38
-0.055575788 0.5443058 0.46226519 1.0604284e-38
-0.058236659 0.54412633 0.46223432 1.0604276e-38
-0.063185573 0.54609048 0.46807641 1.0696477e-38
-0.065857828 0.5459103 0.46804541 1.0787961e-38
-0.068530083 0.54573011 0.46801442 1.0879786e-38
-0.073137701 0.54733425 0.47287732 1.0971612e-38
-0.075819492 0.54715341 0.47284621 1.106346e-38
-0.078501284 0.54697257 0.4728151 1.106383e-38
-0.079219103 0.54500932 0.46789056 1.1156031e-38
-0.083864868 0.54661089 0.47275299 1.1156396e-38
-0.084563613 0.54464895 0.46782869 1.1248223e-38
-0.087235868 0.54446876 0.4677977 1.1248572e-38
-0.087505698 0.54215276 0.46189517 1.1340772e-38
-0.092580378 0.54410839 0.46773571 1.1340776e-38
-0.09282732 0.54179394 0.46183354 1.1432973e-38
-0.095488131 0.54161453 0.46180266 1.1341499e-38
-0.098149002 0.54143506 0.46177179 1.1341858e-38
-0.10080981 0.54125565 0.46174103 1.1341497e-38
-0.10347062 0.54107624 0.46171016 1.134114e-38
-0.10613143 0.54089683 0.46167928 1.1524811e-38
-0.10879225 0.54071742 0.46164852 1.1616289e-38
-0.11145312 0.54053801 0.46161765 1.1616648e-38
-0.11411393 0.5403586 0.46158677 1.1617004e-38
-0.11677474 0.54017913 0.46155602 1.1525523e-38
-0.12197524 0.5421263 0.46739513 1.1434406e-38
-0.1246475 0.54194611 0.46736413 1.1525883e-38
-0.12731975 0.54176593 0.46733314 1.161808e-38
-0.12741804 0.53946149 0.46143264 1.1617723e-38
-0.13007885 0.53928208 0.46140176 1.1618083e-38
-0.13273966 0.53910267 0.461371 1.1617365e-38
-0.13800883 0.54104513 0.46720928 1.1617009e-38
-0.14068109 0.54086494 0.46717829 1.1709205e-38
-0.14335334 0.54068476 0.46714741 1.1709572e-38
-0.14602566 0.54050457 0.46711642 1.1709579e-38
-0.15090966 0.54209012 0.47197598 1.1801408e-38
-0.15359145 0.54190928 0.47194499 1.1801401e-38
-0.021535635 0.55042243 0.47950071 9.5022651e-39
-0.022123963 0.54809636 0.47359389 9.7759724e-39
-0.026922107 0.5500592 0.47943825 1.0050756e-38
-0.027487546 0.54773474 0.47353166 1.0326268e-38
-0.028386682 0.5457688 0.46860462 1.0510303e-38
-0.031058908 0.54558861 0.46857363 1.069397e-38
-0.035532892 0.54719222 0.47343844 1.0510295e-38
-0.038214743 0.54701138 0.47340733 1.0235148e-38
-0.040896535 0.54683053 0.47337633 1.0235509e-38
-0.043578327 0.54664969 0.47334522 1.023623e-38
-0.044420242 0.54468763 0.46841878 1.0328787e-38
-0.047092497 0.54450744 0.46838778 1.032807e-38
-0.049764752 0.5443272 0.46835691 1.0419907e-38
-0.05019486 0.5420118 0.46245199 1.0512101e-38
-0.05285567 0.54183239 0.46242112 1.0603935e-38
-0.057781518 0.54378664 0.46826392 1.0604288e-38
-0.060453773 0.54360646 0.46823293 1.069612e-38
-0.063126087 0.54342628 0.46820205 1.0696124e-38
-0.065798342 0.54324609 0.46817106 1.0787963e-38
-0.068470597 0.54306591 0.46814007 1.0880152e-38
-0.073077977 0.54466057 0.47300333 1.1063819e-38
-0.073815107 0.54270554 0.4680782 1.115566e-38
-0.076487303 0.54252535 0.4680472 1.1155308e-38
-0.079159617 0.54234517 0.46801621 1.1156029e-38
-0.081831872 0.54216498 0.46798521 1.1248586e-38
-0.084504128 0.54198474 0.46795422 1.1248221e-38
-0.087176383 0.54180455 0.46792334 1.1339694e-38
-0.087446392 0.53949994 0.46202022 1.143225e-38
-0.092520893 0.54144418 0.46786135 1.1524805e-38
-0.092768013 0.53914112 0.46195859 1.1524808e-38
-0.095428824 0.53896171 0.46192771 1.1524811e-38
-0.098089695 0.5387823 0.46189696 1.1433334e-38
-0.10075051 0.53860289 0.46186608 1.1432977e-38
-0.10341132 0.53842348 0.46183521 1.1432977e-38
-0.10607213 0.53824401 0.46180445 1.1616648e-38
-0.10873294 0.5380646 0.46177357 1.1708483e-38
-0.11139381 0.53788519 0.4617427 1.1708125e-38
-0.11405462 0.53770578 0.46171194 1.1617005e-38
-0.1192435 0.53964227 0.46755165 1.161772e-38
-0.12191576 0.53946209 0.46752077 1.1617721e-38
-0.12458801 0.5392819 0.46748978 1.1618081e-38
-0.12726027 0.53910172 0.46745878 1.1617724e-38
-0.12735873 0.53680867 0.46155769 1.1709202e-38
-0.13001955 0.53662926 0.46152693 1.1709202e-38
-0.13268036 0.53644985 0.46149606 1.1708845e-38
-0.13534123 0.53627044 0.46146518 1.1709204e-38
-0.1406216 0.5382008 0.46730393 1.1709205e-38
-0.14329386 0.53802061 0.46727306 1.1709568e-38
-0.14596617 0.53784043 0.46724206 1.1709571e-38
-0.14863837 0.53766024 0.46721107 1.1709568e-38
-0.15131062 0.53748006 0.46718007 1.1709565e-38
-0.021475613 0.54773736 0.47962731 9.3164474e-39
-0.022064239 0.54542267 0.47371989 1.0050767e-38
-0.026862085 0.54737413 0.47956496 1.0142595e-38
-0.027427822 0.54506099 0.47365779 1.0234074e-38
-0.030109584 0.54488015 0.47362667 1.0418103e-38
-0.032791376 0.54469931 0.47359568 1.0510296e-38
-0.035473168 0.54451847 0.47356457 1.0418817e-38
-0.038155019 0.54433769 0.47353345 1.0326984e-38
-0.040836811 0.54415685 0.47350234 1.0327345e-38
-0.041688442 0.54220355 0.46857542 1.0327708e-38
-0.044360697 0.54202336 0.46854442 1.032807e-38
-0.047032952 0.54184318 0.46851343 1.0419548e-38
-0.049705207 0.54166299 0.46848243 1.0419907e-38
-0.052377462 0.54148281 0.46845156 1.051246e-38
-0.052796364 0.53917956 0.46254617 1.0603937e-38
-0.057721972 0.54112244 0.46838957 1.0603935e-38
-0.060394228 0.54094225 0.46835858 1.0603932e-38
-0.063066542 0.54076207 0.4683277 1.0695769e-38
-0.065738797 0.54058182 0.46829671 1.0696129e-38
-0.068411052 0.54040164 0.46826571 1.0696488e-38
-0.071083307 0.54022145 0.46823472 1.0880159e-38
-0.073755562 0.54004127 0.46820384 1.1063832e-38
-0.076427758 0.53986108 0.46817285 1.106419e-38
-0.079100072 0.5396809 0.46814185 1.106455e-38
-0.081772327 0.53950071 0.46811086 1.1064552e-38
-0.084444582 0.53932053 0.46807986 1.1156386e-38
-0.087116838 0.53914034 0.46804899 1.124822e-38
-0.089789093 0.53896016 0.468018 1.1340416e-38
-0.092461348 0.53877997 0.467987 1.1432611e-38
-0.095133662 0.53859979 0.46795601 1.152445e-38
-0.095369577 0.53630888 0.46205288 1.1432974e-38
-0.098030448 0.53612947 0.46202201 1.1433336e-38
-0.10069126 0.53595006 0.46199113 1.1432978e-38
-0.10335207 0.53577065 0.46196038 1.1432978e-38
-0.10601288 0.53559119 0.4619295 1.1432978e-38
-0.10867369 0.53541178 0.46189862 1.1525173e-38
-0.11383945 0.53733844 0.46773928 1.1525171e-38
-0.1165117 0.53715825 0.46770829 1.1617365e-38
-0.11918396 0.53697807 0.4676773 1.1617364e-38
-0.12185621 0.53679788 0.46764642 1.1617367e-38
-0.12452847 0.5366177 0.46761543 1.1617368e-38
-0.12720072 0.53643751 0.46758443 1.161737e-38
-0.12729949 0.53415585 0.46168286 1.161737e-38
-0.1299603 0.53397644 0.46165198 1.1708846e-38
-0.13262111 0.53379703 0.46162122 1.1709205e-38
-0.13528198 0.53361762 0.46159035 1.1709564e-38
-0.14056206 0.53553653 0.46742958 1.1709564e-38
-0.14060366 0.5332588 0.46152872 1.1709564e-38
-0.14326441 0.53307939 0.46149784 1.1709562e-38
-0.14857882 0.53499597 0.46733671 1.1709923e-38
-0.15125108 0.53481579 0.46730572 1.1709924e-38
-0.019322693 0.54292977 0.47387713 9.2267657e-39
-0.022004485 0.54274893 0.47384602 1.0327348e-38
-0.024686277 0.54256809 0.4738149 1.0234069e-38
-0.027368069 0.54238731 0.47378391 1.0142593e-38
-0.03004986 0.54220647 0.4737528 1.0233712e-38
-0.032731652 0.54202563 0.47372168 1.0326624e-38
-0.033612132 0.54007995 0.46879393 1.0326984e-38
-0.036284387 0.53989977 0.46876293 1.0327343e-38
-0.038956642 0.53971958 0.46873194 1.0419178e-38
-0.041628897 0.5395394 0.46870106 1.0419541e-38
-0.044301152 0.53935921 0.46867007 1.0419545e-38
-0.046973407 0.53917903 0.46863908 1.0419905e-38
-0.049645662 0.53899878 0.46860808 1.0511742e-38
-0.052317917 0.5388186 0.46857721 1.0512463e-38
-0.052737117 0.5365268 0.46267134 1.0603942e-38
-0.055397928 0.53634739 0.46264046 1.0603938e-38
-0.058058798 0.53616792 0.46260959 1.0603934e-38
-0.063006997 0.53809786 0.46845335 1.0604292e-38
-0.065679252 0.53791767 0.46842235 1.0604653e-38
-0.068351507 0.53773749 0.46839136 1.0513176e-38
-0.071023762 0.5375573 0.46836036 1.0696488e-38
-0.073696017 0.53737712 0.46832937 1.0880519e-38
-0.076368213 0.53719693 0.46829849 1.0972355e-38
-0.079040527 0.53701675 0.4682675 1.0972715e-38
-0.081712782 0.53683656 0.46823651 1.0972356e-38
-0.084385037 0.53665632 0.46820551 1.0972715e-38
-0.087057292 0.53647614 0.46817464 1.1156745e-38
-0.089729548 0.53629595 0.46814364 1.124894e-38
-0.092401803 0.53611577 0.46811265 1.1340779e-38
-0.095074117 0.53593558 0.46808165 1.1432615e-38
-0.095310271 0.53365612 0.46217793 1.1432617e-38
-0.097971141 0.53347665 0.46214718 1.1432977e-38
-0.10309088 0.53539503 0.46798879 1.143298e-38
-0.10329276 0.53311783 0.46208543 1.134114e-38
-0.10595357 0.53293842 0.46205467 1.1341136e-38
-0.10861439 0.53275901 0.46202379 1.1250019e-38
-0.1137799 0.53467429 0.46786493 1.143405e-38
-0.11393607 0.53240019 0.46196216 1.1525887e-38
-0.11659688 0.53222072 0.46193129 1.1525531e-38
-0.12179667 0.53413367 0.46777207 1.1525533e-38
-0.12446892 0.53395349 0.46774107 1.1525175e-38
-0.12457937 0.53168249 0.46183878 1.1525536e-38
-0.12724018 0.53150308 0.46180791 1.1617731e-38
-0.12990099 0.53132367 0.46177715 1.161773e-38
-0.1325618 0.53114426 0.46174628 1.161737e-38
-0.13522267 0.53096479 0.4617154 1.161737e-38
-0.14050251 0.53287238 0.46755522 1.1709564e-38
-0.14054435 0.53060597 0.46165377 1.1709561e-38
-0.14584708 0.53251201 0.46749336 1.1709558e-38
-0.14586592 0.53024715 0.46159214 1.170992e-38
-0.14852679 0.53006774 0.46156126 1.1618087e-38
-0.016581148 0.54043692 0.47403425 7.6637475e-39
-0.01926294 0.54025608 0.47400314 9.0427373e-39
-0.020191282 0.53831667 0.46907443 1.0419541e-38
-0.022863537 0.53813648 0.46904343 1.0235141e-38
-0.025535822 0.5379563 0.46901244 1.0143307e-38
-0.028208077 0.53777611 0.46898156 1.0234786e-38
-0.032671869 0.53935194 0.47384781 1.0235147e-38
-0.033552587 0.53741574 0.46891958 1.0235509e-38
-0.036224842 0.53723556 0.46888858 1.0327701e-38
-0.038897097 0.53705537 0.46885759 1.0328057e-38
-0.041569352 0.53687519 0.46882671 1.0419897e-38
-0.042034566 0.53459167 0.46291977 1.0511737e-38
-0.046913862 0.53651482 0.46876472 1.0603575e-38
-0.047356188 0.53423285 0.46285802 1.0512101e-38
-0.052258372 0.53615439 0.46870285 1.0420989e-38
-0.05267781 0.53387403 0.46279639 1.0512111e-38
-0.057602882 0.53579402 0.46864086 1.0695418e-38
-0.060275137 0.53561383 0.46860987 1.0695769e-38
-0.062947452 0.53543365 0.46857888 1.0787963e-38
-0.065619707 0.53525347 0.468548 1.0696487e-38
-0.065981984 0.53297693 0.46264225 1.0697206e-38
-0.070964217 0.5348931 0.46848601 1.0788682e-38
-0.073636472 0.53471291 0.46845502 1.0972713e-38
-0.078262329 0.53627777 0.47331947 1.1064549e-38
-0.078980982 0.53435254 0.46839315 1.1064908e-38
-0.081653237 0.53417236 0.46836215 1.1064549e-38
-0.086307704 0.53573531 0.47322625 1.1156745e-38
-0.086997747 0.53381193 0.46830028 1.1156745e-38
-0.091671288 0.53537363 0.47316414 1.12493e-38
-0.092342257 0.53345156 0.46823829 1.1341139e-38
-0.095014572 0.53327137 0.4682073 1.1432976e-38
-0.095251024 0.53100336 0.4623031 1.1432976e-38
-0.097911894 0.53082389 0.46227223 1.1525173e-38
-0.10057271 0.53064448 0.46224135 1.1433339e-38
-0.10323352 0.53046507 0.4622106 1.143333e-38
-0.10589433 0.53028566 0.46217972 1.1433322e-38
-0.10855514 0.53010625 0.46214885 1.1434043e-38
-0.11121601 0.52992684 0.46211809 1.1525883e-38
-0.11387682 0.52974743 0.46208721 1.1617723e-38
-0.11653763 0.52956796 0.46205634 1.1617727e-38
-0.11919844 0.52938855 0.46202558 1.1526252e-38
-0.12440938 0.53128928 0.46786672 1.1525894e-38
-0.12708163 0.53110909 0.46783572 1.1617733e-38
-0.12975395 0.53092891 0.46780473 1.1618093e-38
-0.12984174 0.52867091 0.4619022 1.1709925e-38
-0.13250256 0.5284915 0.46187133 1.1709562e-38
-0.13777071 0.53038836 0.46771187 1.1800682e-38
-0.14044297 0.53020817 0.46768087 1.1709205e-38
-0.14048511 0.52795321 0.46177882 1.1708841e-38
-0.14314586 0.5277738 0.46174806 1.1709553e-38
-0.14845973 0.52966762 0.46758801 1.1801752e-38
-0.15113199 0.52948743 0.46755701 1.1709921e-38
-0.019203216 0.5375824 0.47412926 8.8605013e-39
-0.020131767 0.53565246 0.46920007 1.0419898e-38
-0.022804022 0.53547227 0.46916908 1.0326617e-38
-0.025476307 0.53529209 0.46913809 1.0142944e-38
-0.028148562 0.5351119 0.46910709 1.0143302e-38
-0.032612145 0.53667819 0.47397393 1.0143313e-38
-0.033493042 0.53475153 0.46904522 1.0235158e-38
-0.036165297 0.53457135 0.46901423 1.0236229e-38
-0.038837552 0.53439116 0.46898323 1.0328419e-38
-0.041509867 0.53421098 0.46895236 1.0328062e-38
-0.044182122 0.5340308 0.46892136 1.0511735e-38
-0.046854317 0.53385061 0.46889037 1.0695409e-38
-0.049526572 0.53367037 0.46885937 1.05121e-38
-0.052198827 0.53349018 0.4688285 1.032879e-38
-0.054871082 0.53331 0.4687975 1.0512107e-38
-0.055279374 0.5310418 0.46289068 1.0696132e-38
-0.057940245 0.53086233 0.46285981 1.0787963e-38
-0.060601056 0.53068292 0.46282905 1.0879798e-38
-0.063261807 0.53050351 0.46279818 1.0880154e-38
-0.065922678 0.5303241 0.4627673 1.0788685e-38
-0.068583488 0.53014469 0.46273655 1.0972363e-38
-0.073576927 0.5320487 0.46858066 1.1064555e-38
-0.078202546 0.53360409 0.47344559 1.1156746e-38
-0.080884337 0.53342324 0.47341448 1.1156387e-38
-0.083566129 0.5332424 0.47338337 1.1248223e-38
-0.086247921 0.53306156 0.47335237 1.1248224e-38
-0.088929713 0.53288072 0.47332126 1.1248224e-38
-0.091611505 0.53269994 0.47329015 1.1248943e-38
-0.092282712 0.53078735 0.46836394 1.1341137e-38
-0.094955027 0.53060716 0.46833295 1.1341139e-38
-0.095191717 0.52835053 0.46242815 1.1432976e-38
-0.10029954 0.53024679 0.46827108 1.1525174e-38
-0.10297179 0.53006661 0.46824008 1.1525896e-38
-0.10317421 0.52781224 0.46233565 1.1433693e-38
-0.1083163 0.52970624 0.46817809 1.1525163e-38
-0.10849583 0.52745342 0.46227401 1.1525526e-38
-0.1111567 0.52727401 0.46224314 1.1617365e-38
-0.11381751 0.5270946 0.46221226 1.1709561e-38
-0.11647832 0.52691513 0.46218151 1.1617728e-38
-0.11913913 0.52673572 0.46215063 1.152625e-38
-0.12434983 0.52862507 0.46799237 1.1618444e-38
-0.12446082 0.5263769 0.462089 1.1618086e-38
-0.12712163 0.52619749 0.46205813 1.1709921e-38
-0.12978244 0.52601808 0.46202737 1.1709921e-38
-0.13244325 0.52583867 0.4619965 1.1801397e-38
-0.13510412 0.5256592 0.46196562 1.1892875e-38
-0.13776493 0.52547979 0.46193486 1.180068e-38
-0.1404258 0.52530038 0.46190399 1.1709561e-38
-0.14044517 0.52305835 0.4560017 1.1801035e-38
-0.14840019 0.52700341 0.46771365 1.1801755e-38
-0.15107244 0.52682322 0.46768266 1.1802118e-38
-0.012055457 0.53352886 0.46941859 3.5992701e-39
-0.01646167 0.53508949 0.4742865 7.0176621e-39
-0.017399967 0.53316844 0.4693566 8.6746765e-39
-0.020072222 0.53298825 0.46932572 1.0419181e-38
-0.022744477 0.53280807 0.46929473 1.023478e-38
-0.025416762 0.53262788 0.46926373 1.0050746e-38
-0.028089017 0.5324477 0.46923274 1.0051101e-38
-0.030761242 0.53226751 0.46920186 1.0051477e-38
-0.033433497 0.53208733 0.46917087 1.0144049e-38
-0.036105752 0.53190714 0.46913987 1.0236952e-38
-0.038778007 0.53172696 0.46910888 1.0328062e-38
-0.041450322 0.53154677 0.469078 1.0419538e-38
-0.041916013 0.52928609 0.46316999 1.0511374e-38
-0.044576883 0.52910668 0.46313912 1.0603212e-38
-0.047237635 0.52892721 0.46310824 1.0603932e-38
-0.049898505 0.5287478 0.46307749 1.0512458e-38
-0.052559257 0.52856839 0.46304661 1.0604297e-38
-0.055220127 0.52838898 0.46301574 1.069649e-38
-0.057880998 0.52820957 0.46298498 1.0787605e-38
-0.060541809 0.52803016 0.4629541 1.0878719e-38
-0.06320256 0.52785075 0.46292323 1.0879791e-38
-0.065863431 0.52767128 0.46289247 1.0972e-38
-0.070845187 0.52956468 0.4687373 1.1064208e-38
-0.073517442 0.52938449 0.46870631 1.115568e-38
-0.076189637 0.52920431 0.46867543 1.1156031e-38
-0.078861952 0.52902412 0.46864444 1.1247867e-38
-0.081534207 0.52884394 0.46861345 1.1340061e-38
-0.086188197 0.53038788 0.47347838 1.1431898e-38
-0.086878717 0.52848351 0.46855146 1.1340062e-38
-0.091551781 0.5300262 0.47341627 1.1340061e-38
-0.094233572 0.52984536 0.47338516 1.1340777e-38
-0.096915364 0.52966452 0.47335416 1.1432614e-38
-0.09513247 0.52569771 0.46255332 1.1524451e-38
-0.10227901 0.5293029 0.47329193 1.1616652e-38
-0.10291231 0.5274024 0.46836573 1.1617017e-38
-0.10311496 0.52515948 0.46246082 1.1525175e-38
-0.10825682 0.52704203 0.46830374 1.1525527e-38
-0.10843658 0.5248006 0.46239907 1.1617367e-38
-0.10859352 0.52256078 0.45649463 1.161737e-38
-0.11124295 0.52238208 0.45646399 1.1709205e-38
-0.11641908 0.52426237 0.46230656 1.1617728e-38
-0.11907989 0.52408296 0.4622758 1.1618084e-38
-0.12174076 0.52390355 0.46224493 1.1618081e-38
-0.12440157 0.52372408 0.46221405 1.161808e-38
-0.12963492 0.52560049 0.46805602 1.1709914e-38
-0.12972319 0.52336526 0.46215242 1.1801394e-38
-0.132384 0.52318585 0.46212155 1.1801754e-38
-0.13765168 0.52505994 0.46796316 1.1893591e-38
-0.14032394 0.52487975 0.46793216 1.1801755e-38
-0.14299619 0.52469957 0.46790117 1.1710639e-38
-0.14566851 0.52451938 0.46787018 1.1802117e-38
-0.1505512 0.52604789 0.4727326 1.1802477e-38
-0.15323299 0.52586704 0.47270149 1.1802478e-38
-0.011995941 0.53086466 0.46954423 3.4102013e-39
-0.016401917 0.53241581 0.4744125 6.7371249e-39
-0.019083709 0.53223497 0.47438151 8.5846347e-39
-0.020012707 0.5303241 0.46945137 1.0327706e-38
-0.022684962 0.53014392 0.46942037 1.0142233e-38
-0.025357246 0.52996373 0.46938938 9.8667233e-39
-0.028029501 0.52978355 0.46935838 9.9585573e-39
-0.030701756 0.5296033 0.46932751 9.9596434e-39
-0.033374012 0.52942312 0.46929651 1.0144042e-38
-0.036046267 0.52924293 0.46926552 1.0236233e-38
-0.036535084 0.52699214 0.46335667 1.0327706e-38
-0.041390777 0.52888256 0.46920353 1.0419541e-38
-0.041856766 0.52663326 0.46329504 1.0511375e-38
-0.044517577 0.52645385 0.46326417 1.0511735e-38
-0.047178388 0.52627444 0.46323341 1.0603572e-38
-0.049839199 0.52609503 0.46320254 1.0696127e-38
-0.05250001 0.52591562 0.46317178 1.0696129e-38
-0.05516082 0.52573621 0.4631409 1.0696128e-38
-0.055546761 0.52349228 0.45723325 1.0787246e-38
-0.058196127 0.52331364 0.45720261 1.0787603e-38
-0.063143253 0.52519792 0.4630484 1.0971632e-38
-0.065804124 0.52501851 0.46301752 1.1063836e-38
-0.070785642 0.52690047 0.46886295 1.115604e-38
-0.073457897 0.52672029 0.46883196 1.1156033e-38
-0.076130092 0.5265401 0.46880096 1.1247504e-38
-0.078802407 0.52635992 0.46877009 1.1247865e-38
-0.081474662 0.52617973 0.46873909 1.1431538e-38
-0.086128473 0.52771419 0.4736045 1.1523735e-38
-0.088810265 0.52753335 0.47357339 1.143226e-38
-0.091492057 0.52735251 0.47354239 1.1340781e-38
-0.094173849 0.52717167 0.47351128 1.1432973e-38
-0.094835997 0.52527881 0.46858424 1.1432974e-38
-0.097508252 0.52509862 0.46855325 1.1615929e-38
-0.10221928 0.52662921 0.47341806 1.1708483e-38
-0.10285276 0.52473819 0.46849138 1.1708128e-38
-0.10305566 0.52250665 0.46258587 1.1617007e-38
-0.10819727 0.52437782 0.46842939 1.1617723e-38
-0.10588515 0.52009797 0.45664996 1.1617726e-38
-0.10853451 0.51991934 0.4566192 1.1617728e-38
-0.11118394 0.5197407 0.45658857 1.1617728e-38
-0.11635977 0.52160954 0.46243173 1.1709565e-38
-0.11902058 0.52143013 0.46240085 1.1709921e-38
-0.12168145 0.52125072 0.46236998 1.1709918e-38
-0.12690306 0.52311653 0.46821266 1.1617724e-38
-0.12957537 0.52293634 0.46818167 1.1709561e-38
-0.13224763 0.52275616 0.46815068 1.1801755e-38
-0.1323247 0.52053308 0.46224672 1.1802114e-38
-0.13759214 0.52239573 0.46808881 1.1802113e-38
-0.14026439 0.52221555 0.46805781 1.1802113e-38
-0.14293665 0.52203536 0.46802682 1.1710639e-38
-0.14560896 0.52185518 0.46799582 1.1802117e-38
-0.14828116 0.52167499 0.46796495 1.1802478e-38
-0.15095341 0.52149481 0.46793395 1.1894674e-38
-0.011936396 0.52820051 0.46966988 3.3208602e-39
-0.016342193 0.52974206 0.47453862 6.5577503e-39
-0.019023985 0.52956128 0.47450751 8.4906468e-39
-0.021705776 0.52938044 0.47447652 1.0511021e-38
-0.024387568 0.5291996 0.4744454 1.0234431e-38
-0.02706936 0.52901876 0.47441429 1.0050043e-38
-0.027969956 0.52711934 0.46948403 1.005076e-38
-0.030642211 0.52693915 0.46945316 1.0144033e-38
-0.033314466 0.52675897 0.46942216 1.0327706e-38
-0.035986722 0.52657878 0.46939117 1.0419543e-38
-0.038658977 0.5263986 0.46936017 1.0419544e-38
-0.041331232 0.52621841 0.46932918 1.0511019e-38
-0.044003487 0.52603823 0.4692983 1.0511735e-38
-0.046675742 0.52585804 0.46926731 1.060393e-38
-0.047119081 0.52362162 0.46335846 1.0604288e-38
-0.049779952 0.52344221 0.46332771 1.0696484e-38
-0.052440703 0.5232628 0.46329683 1.0696484e-38
-0.055101573 0.52308339 0.46326596 1.0696485e-38
-0.057762444 0.52290398 0.4632352 1.0787963e-38
-0.060423255 0.52272457 0.46320432 1.0880159e-38
-0.065381587 0.52459669 0.46905047 1.0971996e-38
-0.065744877 0.52236569 0.46314269 1.1064194e-38
-0.070726097 0.52423632 0.4689886 1.1156034e-38
-0.073398352 0.52405614 0.4689576 1.1247864e-38
-0.076070547 0.52387595 0.46892661 1.1248217e-38
-0.078742862 0.52369577 0.46889573 1.124858e-38
-0.083386898 0.52522129 0.47376162 1.1248584e-38
-0.08606869 0.52504045 0.47373062 1.1248589e-38
-0.088750482 0.52485961 0.47369951 1.1340786e-38
-0.091432273 0.52467883 0.4736684 1.1432977e-38
-0.092104137 0.52279478 0.46874088 1.1433333e-38
-0.094776452 0.5226146 0.46870989 1.152517e-38
-0.097448707 0.52243441 0.46867889 1.152517e-38
-0.1021595 0.52395546 0.47354418 1.1617004e-38
-0.10279322 0.52207404 0.46861702 1.1617002e-38
-0.10546547 0.52189386 0.46858603 1.1617363e-38
-0.10565722 0.51967442 0.46268016 1.1617723e-38
-0.10831803 0.51949501 0.46264929 1.170992e-38
-0.1109789 0.5193156 0.46261841 1.1709564e-38
-0.11363971 0.51913619 0.46258765 1.1709565e-38
-0.11630052 0.51895678 0.46255678 1.1709565e-38
-0.11896133 0.51877737 0.4625259 1.1801399e-38
-0.1216222 0.51859796 0.46249515 1.1801397e-38
-0.12684351 0.52045232 0.46833831 1.1801041e-38
-0.12951583 0.52027214 0.46830732 1.1801759e-38
-0.13218808 0.52009195 0.46827632 1.1802117e-38
-0.13226545 0.51788026 0.46237177 1.1802114e-38
-0.13492632 0.51770085 0.46234089 1.1802471e-38
-0.14020485 0.5195514 0.46818346 1.180247e-38
-0.140248 0.51734203 0.46227926 1.1802473e-38
-0.14026815 0.51513416 0.45637542 1.1802117e-38
-0.14291757 0.51495552 0.45634466 1.1894314e-38
-0.15089387 0.51883066 0.4680596 1.1894317e-38
-0.011876881 0.52553624 0.46979553 3.3154694e-39
-0.016282439 0.52706838 0.47466475 6.2757796e-39
-0.018964231 0.5268876 0.47463363 8.4931551e-39
-0.021646023 0.52670676 0.47460252 1.0603215e-38
-0.024327815 0.52652591 0.47457153 1.0417387e-38
-0.027009606 0.52634507 0.47454041 1.014224e-38
-0.029691398 0.52616423 0.4745093 1.0234435e-38
-0.03237319 0.52598339 0.47447819 1.032699e-38
-0.035054982 0.52580255 0.47444719 1.0510662e-38
-0.03375572 0.5218659 0.46363777 1.0603215e-38
-0.036416531 0.52168649 0.46360689 1.0603215e-38
-0.041271746 0.52355415 0.46945482 1.0511737e-38
-0.041738212 0.52132767 0.46354526 1.0603571e-38
-0.044399023 0.52114826 0.46351439 1.0696483e-38
-0.047059834 0.52096879 0.46348363 1.0696841e-38
-0.049720645 0.52078938 0.46345276 1.0605006e-38
-0.052381456 0.52060997 0.46342188 1.0696124e-38
-0.057305217 0.52247304 0.4692691 1.0696484e-38
-0.059977472 0.52229285 0.4692381 1.0788319e-38
-0.060363948 0.52007174 0.46332937 1.0880158e-38
-0.065322042 0.52193242 0.46917611 1.0971996e-38
-0.06568557 0.51971287 0.46326774 1.1063834e-38
-0.070666552 0.52157205 0.46911424 1.1247508e-38
-0.073338807 0.52139187 0.46908325 1.13397e-38
-0.076011002 0.52121168 0.46905226 1.1248221e-38
-0.078683317 0.5210315 0.46902138 1.1156747e-38
-0.083327174 0.5225476 0.47388774 1.1065273e-38
-0.086008966 0.52236676 0.47385663 1.0973439e-38
-0.088690758 0.52218592 0.47382563 1.1249306e-38
-0.09137255 0.52200514 0.47379452 1.1433333e-38
-0.094054341 0.5218243 0.47376341 1.1525526e-38
-0.096736133 0.52164346 0.47373241 1.1525527e-38
-0.097389162 0.51977021 0.46880454 1.1525887e-38
-0.10209978 0.52128178 0.47367018 1.1433692e-38
-0.10273367 0.51940978 0.46874267 1.1525884e-38
-0.10540593 0.51922959 0.46871167 1.1617721e-38
-0.10559791 0.5170216 0.46280521 1.1709917e-38
-0.10825872 0.51684219 0.46277446 1.1709921e-38
-0.10841644 0.51463658 0.45686835 1.1801401e-38
-0.11358041 0.51648337 0.46271271 1.1801762e-38
-0.11624122 0.51630396 0.46268195 1.1801765e-38
-0.11890203 0.51612455 0.46265107 1.1801754e-38
-0.1215629 0.51594514 0.4626202 1.1893578e-38
-0.12422371 0.51576567 0.46258944 1.1893585e-38
-0.12945628 0.51760793 0.46843296 1.1893952e-38
-0.13212854 0.51742774 0.46840197 1.1802117e-38
-0.13220614 0.51522744 0.46249694 1.1802118e-38
-0.13486701 0.51504803 0.46246606 1.1802476e-38
-0.1401453 0.51688713 0.4683091 1.1802831e-38
-0.14018869 0.51468921 0.46240443 1.1802476e-38
-0.14769018 0.51820767 0.47314185 1.1893595e-38
-0.15037197 0.51802683 0.47311085 1.1893955e-38
-0.011817336 0.52287209 0.46992117 3.0446152e-39
-0.016222686 0.52439469 0.47479075 5.9102243e-39
-0.018904477 0.52421391 0.47475976 8.2140585e-39
-0.021586269 0.52403307 0.47472864 1.0602856e-38
-0.024268061 0.52385223 0.47469753 1.0326272e-38
-0.026949853 0.52367139 0.47466654 1.0142602e-38
-0.029631615 0.52349055 0.47463542 1.0234797e-38
-0.032313406 0.52330971 0.47460431 1.0419187e-38
-0.033195376 0.52143055 0.46967345 1.0419187e-38
-0.033696413 0.51921314 0.46376282 1.0511381e-38
-0.038539886 0.52107018 0.46961147 1.0603932e-38
-0.041212201 0.52089 0.46958047 1.060429e-38
-0.043884456 0.52070981 0.4695496 1.0604646e-38
-0.044339776 0.5184955 0.46363956 1.06972e-38
-0.049228966 0.52034938 0.46948761 1.06972e-38
-0.049661398 0.51813662 0.46357781 1.06972e-38
-0.054573476 0.51998901 0.46942562 1.069684e-38
-0.057245672 0.51980883 0.46939474 1.0697199e-38
-0.059917986 0.51962864 0.46936375 1.0788675e-38
-0.060304701 0.51741898 0.46345454 1.0880515e-38
-0.065262496 0.51926827 0.46930176 1.0971996e-38
-0.065626323 0.5170601 0.46339279 1.1063474e-38
-0.068287134 0.51688069 0.46336204 1.115567e-38
-0.073279321 0.51872772 0.4692089 1.134006e-38
-0.075951517 0.51854753 0.4691779 1.1248583e-38
-0.078623831 0.51836735 0.46914703 1.1157109e-38
-0.081296027 0.51818717 0.46911603 1.115711e-38
-0.085949242 0.51969308 0.47398275 1.1064916e-38
-0.088631034 0.51951224 0.47395164 1.1249303e-38
-0.091312826 0.51933146 0.47392064 1.143369e-38
-0.091985047 0.51746637 0.46899217 1.1433329e-38
-0.094657362 0.51728618 0.46896118 1.1525167e-38
-0.097329676 0.517106 0.46893018 1.1525527e-38
-0.10000187 0.51692581 0.46889919 1.1525526e-38
-0.10267419 0.51674563 0.46886832 1.1525883e-38
-0.10534638 0.51656544 0.46883732 1.1617721e-38
-0.10553867 0.51436883 0.46293038 1.1617723e-38
-0.10819948 0.51418942 0.46289951 1.1617727e-38
-0.11086035 0.51401001 0.46286863 1.1617731e-38
-0.11352116 0.5138306 0.46283787 1.1618094e-38
-0.11618197 0.51365119 0.462807 1.1710293e-38
-0.11884278 0.51347178 0.46277612 1.180175e-38
-0.12150365 0.51329237 0.46274537 1.1893564e-38
-0.12416446 0.5131129 0.46271449 1.1893937e-38
-0.12939674 0.51494372 0.46855861 1.1893591e-38
-0.12948608 0.51275408 0.46265286 1.1801759e-38
-0.13214689 0.51257467 0.46262199 1.1801764e-38
-0.13741356 0.51440316 0.46846575 1.1801761e-38
-0.14008576 0.51422298 0.46843475 1.1893952e-38
-0.14275807 0.51404279 0.46840376 1.1893954e-38
-0.15027046 0.51753956 0.47914225 1.1893596e-38
-0.1529637 0.51735795 0.47911102 1.1893239e-38
-0.01348114 0.52190185 0.47494799 2.7683744e-39
-0.016162932 0.52172101 0.47491688 5.4481672e-39
-0.018844724 0.52154016 0.47488576 8.0332559e-39
-0.021526515 0.52135932 0.47485477 1.0602853e-38
-0.022446811 0.51948708 0.46992296 1.0325552e-38
-0.025119096 0.5193069 0.46989197 1.0050764e-38
-0.027791351 0.51912671 0.46986097 1.0234795e-38
-0.030463576 0.51894653 0.46982998 1.0418824e-38
-0.033135831 0.51876634 0.4697991 1.041954e-38
-0.033637166 0.51656038 0.46388799 1.04199e-38
-0.038480341 0.51840597 0.46973711 1.060429e-38
-0.041152656 0.51822579 0.46970612 1.0696484e-38
-0.041619658 0.51602209 0.46379548 1.0696844e-38
-0.044280469 0.51584268 0.46376461 1.0604651e-38
-0.049169421 0.51768517 0.46961325 1.0696848e-38
-0.049602091 0.51548386 0.46370298 1.0696845e-38
-0.054513931 0.51732481 0.46955127 1.0697201e-38
-0.057186186 0.51714462 0.46952039 1.0605009e-38
-0.059858441 0.51696444 0.4694894 1.0788681e-38
-0.060245395 0.51476616 0.4635796 1.0880161e-38
-0.065203011 0.51660407 0.46942741 1.0971999e-38
-0.065567017 0.51440734 0.46351796 1.1063837e-38
-0.068227828 0.51422793 0.46348709 1.1155675e-38
-0.073219776 0.51606351 0.46933454 1.1247868e-38
-0.075891972 0.51588333 0.46930355 1.1248226e-38
-0.078564286 0.51570314 0.46927255 1.1156752e-38
-0.081236541 0.51552296 0.46924168 1.1156754e-38
-0.083908796 0.51534271 0.46921068 1.1156753e-38
-0.08857125 0.51683855 0.47407776 1.1248587e-38
-0.089253306 0.51498234 0.4691487 1.1341139e-38
-0.091925561 0.51480216 0.46911782 1.1432614e-38
-0.094597876 0.51462197 0.46908683 1.1524808e-38
-0.097270131 0.51444179 0.46905583 1.1525168e-38
-0.099942386 0.5142616 0.46902484 1.1525524e-38
-0.10261464 0.51408142 0.46899396 1.152588e-38
-0.1052869 0.51390123 0.46896297 1.1525526e-38
-0.10547936 0.51171607 0.46305543 1.152553e-38
-0.10814017 0.51153666 0.46302456 1.1525531e-38
-0.11080104 0.51135725 0.4629938 1.1525534e-38
-0.11346185 0.51117784 0.46296293 1.143442e-38
-0.11612266 0.51099837 0.46293205 1.1618812e-38
-0.11878347 0.51081896 0.46290129 1.1801752e-38
-0.12144434 0.51063955 0.46287042 1.1893575e-38
-0.12410516 0.51046014 0.46283954 1.1893584e-38
-0.12933725 0.51227951 0.46868426 1.1893233e-38
-0.13200951 0.51209933 0.46865326 1.1801399e-38
-0.13468176 0.51191914 0.46862227 1.1801402e-38
-0.13474846 0.50974244 0.46271628 1.1801759e-38
-0.14002627 0.51155877 0.4685604 1.1893235e-38
-0.14488888 0.51304108 0.47342521 1.1985788e-38
-0.14757067 0.51286024 0.4733941 1.1893954e-38
-0.15025246 0.5126794 0.47336298 1.1801758e-38
-0.013421416 0.5192281 0.47507399 2.676162e-39
-0.016103208 0.51904726 0.475043 5.1726509e-39
-0.018785 0.51886648 0.47501189 7.9374716e-39
-0.021466792 0.51868564 0.47498077 1.0695045e-38
-0.024148583 0.5185048 0.47494978 1.0418459e-38
-0.026830375 0.51832396 0.47491866 1.0234791e-38
-0.027731836 0.5164625 0.46998662 1.0326629e-38
-0.030404091 0.51628232 0.46995562 1.0418103e-38
-0.033076346 0.51610214 0.46992475 1.0419175e-38
-0.035748601 0.51592195 0.46989375 1.0419538e-38
-0.038420856 0.51574177 0.46986276 1.0512094e-38
-0.041093111 0.51556158 0.46983176 1.0604291e-38
-0.041560352 0.51336926 0.46392053 1.0603935e-38
-0.044221222 0.51318985 0.46388978 1.0695416e-38
-0.049109876 0.51502097 0.4697389 1.0696138e-38
-0.049542844 0.51283103 0.46382803 1.0788328e-38
-0.054454386 0.5146606 0.46967691 1.0788322e-38
-0.057126641 0.51448041 0.46964604 1.069649e-38
-0.059798896 0.51430023 0.46961504 1.0880163e-38
-0.062471211 0.51412004 0.46958405 1.0971641e-38
-0.065143466 0.51393986 0.46955305 1.1063478e-38
-0.06550777 0.51175451 0.46364301 1.1063483e-38
-0.070487976 0.51357949 0.46949118 1.115568e-38
-0.073160231 0.5133993 0.46946019 1.1247871e-38
-0.075832427 0.51321912 0.46942919 1.1248227e-38
-0.078504741 0.51303893 0.4693982 1.1248231e-38
-0.081176996 0.51285875 0.46936733 1.1248593e-38
-0.083849251 0.5126785 0.46933633 1.1248591e-38
-0.086521506 0.51249832 0.46930534 1.1340783e-38
-0.089193761 0.51231813 0.46927434 1.1432977e-38
-0.089455187 0.51013976 0.4633655 1.1524811e-38
-0.094538331 0.51195776 0.46921247 1.1616645e-38
-0.097210586 0.51177758 0.46918148 1.1617002e-38
-0.099882841 0.51159739 0.46915048 1.1616998e-38
-0.1025551 0.51141721 0.46911949 1.1525517e-38
-0.10522735 0.51123703 0.46908861 1.1525166e-38
-0.10789961 0.51105684 0.46905762 1.1617365e-38
-0.11057186 0.51087666 0.46902663 1.1709202e-38
-0.11074179 0.50870442 0.46311885 1.1617726e-38
-0.11340261 0.50852501 0.4630881 1.1618446e-38
-0.11606342 0.50834554 0.46305722 1.1709925e-38
-0.11872423 0.50816613 0.46302634 1.1801398e-38
-0.1213851 0.50798672 0.46299559 1.1893228e-38
