# .PCD v0.7 - Point Cloud Data file format
VERSION 0.7
FIELDS x y z rgb
SIZE 4 4 4 4
TYPE F F F F
COUNT 1 1 1 1
WIDTH 1026
HEIGHT 1
VIEWPOINT 0 0 0 1 0 0 0
POINTS 1026
DATA ascii
0.60177797 0.56115204 0.28495079 1.2903801e-39
0.59947169 0.56099653 0.28492409 1.2903815e-39
0.59758085 0.56254554 0.28882843 1.1067119e-39
0.59526694 0.56238949 0.28880161 9.2339543e-40
0.59295303 0.56223351 0.28877479 1.1070636e-39
0.59063911 0.56207746 0.28874797 1.1988991e-39
0.58832514 0.56192142 0.28872126 1.2903759e-39
0.58601123 0.56176537 0.28869444 1.2903773e-39
0.58369732 0.56160939 0.28866762 1.1981845e-39
0.58138341 0.56145334 0.2886408 1.0148694e-39
0.5795126 0.56342286 0.29352683 1.1070622e-39
0.57718915 0.56326622 0.29349989 1.1070636e-39
0.57520497 0.56480891 0.29740304 1.1989019e-39
0.57287389 0.56465173 0.29737598 1.2907374e-39
0.57054281 0.56449455 0.29734904 1.2907388e-39
0.56821173 0.56433737 0.29732198 1.2907388e-39
0.56588066 0.5641802 0.29729491 1.2903801e-39
0.56354958 0.56402302 0.29726797 1.1985418e-39
0.56092495 0.56216949 0.29331142 1.1067049e-39
0.5586015 0.56201285 0.29328448 1.0145107e-39
0.55627805 0.56185621 0.29325765 9.2267657e-40
0.5539546 0.56169951 0.29323071 8.311998e-40
0.55163115 0.56154287 0.29320377 9.2267657e-40
0.5493077 0.56138617 0.29317683 1.0145121e-39
0.54723197 0.56292272 0.29707891 1.0141519e-39
0.54490089 0.56276554 0.29705185 1.0145093e-39
0.54256988 0.56260836 0.29702479 1.0145079e-39
0.54023874 0.56245112 0.29699785 1.0145079e-39
0.53790766 0.56229395 0.29697078 1.0145079e-39
0.53536695 0.56044614 0.2930153 9.2267657e-40
0.5330435 0.5602895 0.29298836 9.2196331e-40
0.53072006 0.5601328 0.29296142 9.219591e-40
0.52839655 0.55997616 0.29293448 9.219535e-40
0.52584916 0.55770868 0.28799719 9.2231223e-40
0.52353525 0.5575527 0.28797036 8.3047813e-40
0.52122134 0.55739665 0.28794354 6.475218e-40
0.51890737 0.55724061 0.28791672 6.4787913e-40
0.51659346 0.55708462 0.2878899 6.475232e-40
0.51427954 0.55692858 0.28786319 8.3083827e-40
0.51196563 0.55677253 0.28783637 9.219563e-40
0.51006049 0.56209278 0.30057436 8.301208e-40
0.50786948 0.56404066 0.3054567 6.4716727e-40
0.50538307 0.56177735 0.30052024 5.5569051e-40
0.50304437 0.5616197 0.30049306 4.6278863e-40
0.5005151 0.55809611 0.29261142 1.0130939e-39
0.49808207 0.55583638 0.28767544 1.4733518e-39
0.49568811 0.55399847 0.28372139 2.299158e-39
0.4933818 0.55384296 0.28369468 3.1332123e-39
0.49107549 0.55368745 0.28366798 3.6914027e-39
0.48871201 0.55185157 0.27971452 4.1487977e-39
0.48641336 0.55169654 0.27968782 4.6126514e-39
0.48407274 0.54986221 0.27573436 4.9792759e-39
0.48173881 0.54760921 0.27079958 4.795965e-39
0.47945729 0.54745537 0.27077311 4.6119297e-39
0.47715673 0.54562366 0.26682037 4.5197313e-39
0.47488281 0.54547036 0.26679403 4.3353442e-39
0.47260892 0.54531705 0.26676768 4.2424339e-39
0.47033119 0.54684001 0.27066737 4.1498795e-39
0.46804968 0.54668617 0.27064091 4.0576839e-39
0.46578723 0.54485703 0.26668864 3.8743731e-39
0.46351331 0.54470372 0.2666623 3.8747346e-39
0.46127376 0.54287618 0.26271003 3.8740185e-39
0.45900747 0.54272342 0.26268381 3.8736612e-39
0.45674121 0.54257059 0.26265746 3.873657e-39
0.45453212 0.54074508 0.25870579 3.8740115e-39
0.45220864 0.54226494 0.26260501 3.7818117e-39
0.44994238 0.54211211 0.26257879 3.9651183e-39
0.44767609 0.54195935 0.26255244 4.0576741e-39
0.44540983 0.54180652 0.26252621 4.1491551e-39
0.44314355 0.54165369 0.26249999 4.2420682e-39
0.44087729 0.54150087 0.26247364 4.2420682e-39
0.43872157 0.53967899 0.25852257 4.1505956e-39
0.43646291 0.5395267 0.25849646 4.1502411e-39
0.43420425 0.53937441 0.25847024 4.0584112e-39
0.43207905 0.53755456 0.2545194 4.1502523e-39
0.42982802 0.53740281 0.25449342 4.2424381e-39
0.42757699 0.537251 0.25446731 3.8761639e-39
0.42532596 0.53709924 0.2544412 3.5063122e-39
0.42307493 0.53694743 0.25441509 3.0464187e-39
0.4208239 0.53679568 0.25438899 2.5847216e-39
0.41857287 0.53664386 0.25436288 2.3052621e-39
0.41632184 0.53649205 0.25433689 1.9400795e-39
0.41407084 0.5363403 0.25431079 1.571311e-39
0.41181982 0.53618848 0.25428468 1.1146404e-39
0.40956879 0.53603673 0.25425857 1.5738151e-39
0.40753505 0.53422308 0.25030869 1.9426074e-39
0.40529165 0.5340718 0.2502827 2.1277302e-39
0.40328079 0.5322597 0.2463333 2.2199188e-39
0.40104502 0.53210896 0.24630743 2.6798082e-39
0.39905703 0.53029835 0.24235803 3.1379066e-39
0.39682889 0.53014815 0.24233228 2.587251e-39
0.39460072 0.52999789 0.24230641 1.9429676e-39
0.39237258 0.52984762 0.24228066 1.6663849e-39
0.3904227 0.52803963 0.23833197 1.298673e-39
0.38791627 0.52954715 0.24222893 1.481258e-39
0.3856881 0.52939689 0.24220318 1.6656534e-39
0.38345996 0.52924669 0.24217731 2.1244792e-39
0.38061422 0.53240782 0.24999672 2.4925358e-39
0.37837082 0.53225654 0.24997073 2.8591561e-39
0.37612742 0.53210527 0.24994475 3.1364437e-39
0.37388402 0.53195399 0.24991876 3.3201035e-39
0.37164062 0.53180277 0.24989277 3.413025e-39
0.36939719 0.5316515 0.24986678 3.5974246e-39
0.36750835 0.52984756 0.24591881 3.6896231e-39
0.36563471 0.5280447 0.24197072 3.8725794e-39
0.36340657 0.5278945 0.24194497 4.0562462e-39
0.3611784 0.52774423 0.2419191 3.8725724e-39
0.35895026 0.52759397 0.24189335 3.5974218e-39
0.35672212 0.52744377 0.24186748 3.506301e-39
0.35489422 0.52564394 0.23792022 3.3219125e-39
0.35267371 0.52549422 0.23789448 3.2293582e-39
0.3508687 0.52369601 0.23394734 3.1371695e-39
0.34865579 0.52354681 0.23392159 3.229368e-39
0.34644288 0.52339756 0.23389596 3.3212133e-39
0.34466839 0.52160138 0.22994918 3.4123411e-39
0.34246308 0.52145272 0.22992367 3.4137803e-39
0.33980417 0.52294993 0.23381907 3.7836376e-39
0.33759126 0.52280074 0.23379344 4.152053e-39
0.33490944 0.5242964 0.2376886 4.4293517e-39
0.33221242 0.52579105 0.24158341 4.6126626e-39
0.32998425 0.52564085 0.24155766 4.4261217e-39
0.32775611 0.52549058 0.24153179 4.1509754e-39
0.32552797 0.52534032 0.24150604 4.1499006e-39
0.3232998 0.52519011 0.24148017 4.0576965e-39
0.32158628 0.52339798 0.23753422 3.8729381e-39
0.31936574 0.52324826 0.23750848 3.6892699e-39
0.31767511 0.52145779 0.23356265 3.7814684e-39
0.31599972 0.51966828 0.22961706 3.7811054e-39
0.31379443 0.51951957 0.22959143 3.7818187e-39
0.3121419 0.51773167 0.22564608 3.6896245e-39
0.31036451 0.51635444 0.22268087 3.6903419e-39
0.30817258 0.51620662 0.22265548 3.5988596e-39
0.30598065 0.51605886 0.22263008 3.4159018e-39
0.30437198 0.51427388 0.21868521 3.1371667e-39
0.30218768 0.51412654 0.21865994 2.6779907e-39
0.30000335 0.51397926 0.21863467 2.1233806e-39
0.29781905 0.51383197 0.21860927 1.6595311e-39
0.29563472 0.51368469 0.218584 1.2003467e-39
0.65693581 0.54379332 0.24152428 2.5836567e-39
0.65471524 0.54364359 0.24149853 2.9517217e-39
0.65249473 0.54349387 0.24147278 3.319777e-39
0.65027416 0.54334414 0.24144703 3.7807425e-39
0.64805365 0.54319441 0.24142128 4.2413647e-39
0.6464318 0.54475391 0.24532896 3.8740325e-39
0.64420366 0.54460371 0.24530309 3.5063234e-39
0.63361573 0.54555875 0.24910706 3.9647736e-39
0.63137996 0.54540795 0.24908119 4.4257504e-39
0.62420958 0.56578571 0.29807991 2.4892876e-39
0.6218785 0.56562853 0.29805285 2.027592e-39
0.61906314 0.56376982 0.29409379 1.4744154e-39
0.61673963 0.56361312 0.29406685 1.382926e-39
0.61382991 0.5613308 0.28912491 1.2914493e-39
0.611516 0.56117475 0.2890982 1.3832848e-39
0.60920203 0.56101871 0.28907138 1.4754804e-39
0.60688812 0.56086272 0.28904456 1.3829274e-39
0.6045742 0.56070668 0.28901774 1.290736e-39
0.60226029 0.56055063 0.28899091 1.1989033e-39
0.59994638 0.56039464 0.28896409 1.1067147e-39
0.59763241 0.5602386 0.28893727 1.1067203e-39
0.5953185 0.56008255 0.28891045 1.1067147e-39
0.59300458 0.55992657 0.28888363 1.1067091e-39
0.59069061 0.55977052 0.2888568 1.1985446e-39
0.58885819 0.56173313 0.29374379 1.1985432e-39
0.58653474 0.56157643 0.29371685 1.1989019e-39
0.5845812 0.56311357 0.29762071 1.1985432e-39
0.58225012 0.56295639 0.29759365 1.1067077e-39
0.57991904 0.56279922 0.29756659 1.1067063e-39
0.57758796 0.56264204 0.29753965 1.1981845e-39
0.57559633 0.56417668 0.30144316 1.1985432e-39
0.57325763 0.56401896 0.3014161 1.2903787e-39
0.57091892 0.56386125 0.30138904 1.2903787e-39
0.56858021 0.5637036 0.30136186 1.2903787e-39
0.56593257 0.56185615 0.29740459 1.1070664e-39
0.5639028 0.56338817 0.30130774 1.0148722e-39
0.56127042 0.56154174 0.29735059 1.0152309e-39
0.55865324 0.55969644 0.29339379 9.2267797e-40
0.55632979 0.55953974 0.29336685 9.230353e-40
0.55400634 0.55938309 0.29333991 8.311998e-40
0.55168289 0.55922639 0.29331297 9.2267657e-40
0.54935944 0.55906975 0.29328603 1.1063476e-39
0.54753184 0.56228429 0.30111796 9.230339e-40
0.5451932 0.56212658 0.3010909 8.311984e-40
0.54285449 0.56196892 0.30106384 9.230339e-40
0.54051578 0.56181121 0.30103666 9.2267657e-40
0.53795964 0.5599699 0.29708034 8.311998e-40
0.53562856 0.55981272 0.2970534 8.3156414e-40
0.53329742 0.55965555 0.29702634 8.3085228e-40
0.5309664 0.55949837 0.29699939 9.2231923e-40
0.52863526 0.55934119 0.29697233 9.2266816e-40
0.52630424 0.55918401 0.29694527 1.0145037e-39
0.52380145 0.55734634 0.29298991 8.3119139e-40
0.521478 0.5571897 0.29296297 6.4787913e-40
0.51895893 0.55493367 0.28802556 7.393559e-40
0.51664501 0.55477768 0.28799874 8.3047673e-40
0.5143311 0.55462164 0.28797191 8.301208e-40
0.51027006 0.56185788 0.30559427 8.301208e-40
0.50804013 0.56337637 0.30949503 8.3083827e-40
0.50557357 0.5615412 0.30553991 1.0141505e-39
0.50322533 0.56138283 0.30551261 1.1978383e-39
0.50066233 0.557455 0.2966482 2.0272445e-39
0.49813363 0.55352944 0.28778428 2.8526962e-39
0.49573949 0.5516991 0.28382987 3.5027277e-39
0.49343318 0.55154359 0.28380305 4.1509487e-39
0.49112687 0.55138808 0.28377634 4.2442107e-39
0.48876324 0.54955977 0.27982253 4.4304027e-39
0.48646456 0.5494048 0.27979594 4.7048414e-39
0.48416588 0.54924977 0.27976924 4.9800074e-39
0.48183274 0.5474236 0.27581555 4.7956357e-39
0.47950813 0.54518068 0.2708804 4.6112304e-39
0.47722661 0.54502684 0.27085394 4.5193781e-39
0.47493348 0.54320329 0.26690096 4.3353456e-39
0.47265959 0.54304999 0.26687461 4.2427898e-39
0.47038203 0.54456532 0.27077466 4.1502355e-39
0.46810052 0.54441148 0.2707482 3.6903391e-39
0.465819 0.54425764 0.27072173 3.3230055e-39
0.46353745 0.5441038 0.27069539 3.5063248e-39
0.46129009 0.54228336 0.26674289 3.6892783e-39
0.45901617 0.54213005 0.26671654 3.7814726e-39
0.45674229 0.54197669 0.26669019 3.8736626e-39
0.45452541 0.54015833 0.26273781 3.9658526e-39
0.45219448 0.54167002 0.2666375 4.0573266e-39
0.44992059 0.54151672 0.26661116 4.0580398e-39
0.44764671 0.54136336 0.26658481 4.1502327e-39
0.44537279 0.54121006 0.26655835 4.3342596e-39
0.4430989 0.54105675 0.266532 4.5186494e-39
0.44082499 0.54090339 0.26650566 4.3346211e-39
0.43866149 0.53908861 0.26255399 4.1509543e-39
0.43639523 0.53893578 0.26252776 3.9669288e-39
0.43412894 0.53878295 0.26250142 3.8740297e-39
0.43199593 0.53697026 0.25855035 3.6903714e-39
0.42973727 0.53681797 0.25852412 3.5066849e-39
0.42762715 0.53500676 0.25457317 3.1375325e-39
0.42537612 0.53485501 0.25454706 2.7691171e-39
0.42296132 0.5363611 0.25844556 2.3088662e-39
0.42087406 0.53455144 0.25449485 1.8482398e-39
0.41862303 0.53439963 0.25446874 2.0322555e-39
0.416372 0.53424782 0.25444263 2.217737e-39
0.41412097 0.53409606 0.25441664 1.942606e-39
0.41186994 0.53394425 0.25439054 1.7603728e-39
0.40961891 0.5337925 0.25436443 1.9444039e-39
0.40758502 0.53198647 0.25041419 2.1291679e-39
0.40534163 0.5318352 0.25038821 2.0366318e-39
0.40333059 0.53003073 0.24643844 1.9451424e-39
0.40109482 0.52987993 0.24641258 2.0351702e-39
0.39910668 0.52807689 0.24246281 2.1262826e-39
0.39687851 0.52792668 0.24243706 1.7574987e-39
0.39465037 0.52777642 0.2424112 1.3890777e-39
0.3924222 0.52762616 0.24238533 1.3890749e-39
0.39019406 0.52747595 0.24235958 1.4808936e-39
0.38768014 0.52897543 0.24625713 1.7560246e-39
0.38573775 0.52717543 0.24230796 2.0311849e-39
0.38350958 0.52702522 0.24228209 2.3996143e-39
0.3803556 0.53181928 0.25402528 2.8587932e-39
0.37810457 0.53166747 0.25399917 3.0438991e-39
0.37585354 0.53151572 0.25397319 3.3211965e-39
0.37360251 0.5313639 0.25394708 3.4133879e-39
0.37135148 0.53121215 0.25392097 3.4144669e-39
0.36944717 0.52941483 0.24997228 3.5059465e-39
0.36720377 0.52926356 0.2499463 3.5985036e-39
0.36532235 0.52746785 0.24599797 3.597789e-39
0.36308658 0.52731705 0.2459721 3.6892601e-39
0.36085081 0.52716631 0.24594623 3.5048661e-39
0.35861504 0.52701557 0.24592024 3.3211937e-39
0.35637927 0.52686477 0.24589437 3.1371625e-39
0.35414347 0.52671403 0.2458685 3.0449683e-39
0.35231543 0.52492177 0.24192065 2.8612973e-39
0.35008729 0.52477157 0.24189478 2.7683884e-39
0.34785911 0.52462131 0.24186891 2.8613015e-39
0.34606159 0.5228312 0.23792166 2.9538601e-39
0.34384105 0.52268147 0.23789603 2.8613127e-39
0.3416205 0.52253175 0.23787028 2.8613169e-39
0.33939999 0.52238202 0.23784453 3.2297379e-39
0.33671835 0.52387011 0.24173981 3.6903559e-39
0.33449018 0.52371985 0.24171406 3.7825558e-39
0.33226204 0.52356958 0.24168819 3.9655065e-39
0.3300339 0.52341938 0.24166244 3.8736668e-39
0.32780576 0.52326912 0.24163657 3.7811096e-39
0.32557759 0.52311885 0.24161071 3.781104e-39
0.32334942 0.52296865 0.24158496 3.8722193e-39
0.32112128 0.52281839 0.24155909 3.6892615e-39
0.31941521 0.52103448 0.2376129 3.5974288e-39
0.31772441 0.51925153 0.23366672 3.5059535e-39
0.31604886 0.5174697 0.22972065 3.5059549e-39
0.31384358 0.51732099 0.22969514 3.1382542e-39
0.31219089 0.51554066 0.22574943 2.8616701e-39
0.31041336 0.5141691 0.22278398 2.678355e-39
0.3082214 0.51402128 0.22275859 2.5879432e-39
0.3060295 0.51387352 0.2227332 2.4010324e-39
0.30442065 0.51209611 0.21878797 2.1226617e-39
0.30164561 0.51357788 0.2226823 1.7538904e-39
0.29945365 0.51343012 0.22265691 1.3833128e-39
0.29726171 0.5132823 0.22263151 1.1989159e-39
0.65698522 0.54157948 0.24162859 2.58473e-39
0.65476471 0.54142976 0.24160284 2.8609554e-39
0.65254414 0.54128003 0.24157721 3.1368178e-39
0.65032363 0.5411303 0.24155146 3.3201273e-39
0.64810312 0.54098058 0.24152571 3.5048801e-39
0.64588261 0.54083085 0.24149996 3.3219336e-39
0.64425325 0.5423823 0.24540788 3.1378982e-39
0.63366556 0.54332966 0.24921221 4.3317625e-39
0.63142979 0.54317892 0.24918634 4.7009065e-39
0.6242615 0.56346172 0.29818946 2.3974437e-39
0.62193042 0.56330454 0.29816252 2.0279451e-39
0.61911488 0.56145334 0.2942031 1.6588025e-39
0.61679143 0.5612967 0.29417616 1.4747657e-39
0.61446798 0.56114006 0.29414922 1.2914535e-39
0.61214453 0.56098336 0.29412228 1.1999767e-39
0.60982102 0.56082672 0.29409534 1.1077811e-39
0.60693967 0.55855578 0.28915328 1.2910919e-39
0.60462576 0.55839974 0.28912646 1.3829302e-39
0.60231185 0.55824369 0.28909963 1.1999795e-39
0.60052723 0.56020004 0.29398769 9.2340244e-40
0.59820378 0.56004333 0.29396075 1.1063602e-39
0.59588033 0.55988669 0.29393381 1.1981929e-39
0.59355688 0.55972999 0.29390687 1.1981901e-39
0.59123343 0.55957335 0.29387993 1.1981915e-39
0.58929527 0.56110394 0.29778427 1.1981943e-39
0.58734196 0.56263345 0.30168873 1.1067147e-39
0.58500326 0.5624758 0.30166155 1.1989061e-39
0.58266455 0.56231809 0.30163449 1.1985446e-39
0.58032584 0.56216037 0.30160743 1.1985432e-39
0.57798713 0.56200266 0.30158025 1.198546e-39
0.57607293 0.56395024 0.30646664 1.1985488e-39
0.57372469 0.56379187 0.30643946 1.198546e-39
0.57137644 0.56363356 0.30641216 1.1985446e-39
0.5686323 0.56137192 0.30147189 1.1989033e-39
0.5662936 0.56121421 0.30144471 1.0155911e-39
0.56365341 0.55937493 0.29748708 8.3192007e-40
0.56161618 0.56089878 0.30139059 8.322788e-40
0.55899125 0.55906057 0.29743308 8.3191727e-40
0.55666018 0.5589034 0.29740614 8.322732e-40
0.5543291 0.55874622 0.29737908 8.3191446e-40
0.55199802 0.55858904 0.29735202 1.0145093e-39
0.5499227 0.56011033 0.30125505 1.1067035e-39
0.54789412 0.5620501 0.30614012 9.2339123e-40
0.54554588 0.56189179 0.30611283 6.4788894e-40
0.54319763 0.56173342 0.30608565 7.4008738e-40
0.54056787 0.55947953 0.30114669 8.3156134e-40
0.53822917 0.55932182 0.30111951 7.3936571e-40
0.53589046 0.55916411 0.30109245 6.4753161e-40
0.53334939 0.55733156 0.29713601 7.3972864e-40
0.53101832 0.55717438 0.29710895 8.311984e-40
0.52868724 0.55701715 0.29708189 9.2338562e-40
0.52635616 0.55685997 0.29705495 1.0152211e-39
0.52385318 0.55502993 0.29309911 8.3155013e-40
0.52152973 0.55487323 0.29307216 6.4788054e-40
0.51280433 0.56134534 0.30966038 8.2976067e-40
0.51044852 0.56118649 0.30963308 9.2159336e-40
0.50809264 0.56102765 0.30960578 1.0137974e-39
0.50573677 0.5608688 0.30957848 1.472626e-39
0.50327766 0.55904168 0.30562311 1.8442741e-39
0.50071424 0.55513096 0.29675776 3.0445956e-39
0.49818516 0.5512225 0.287893 4.2409948e-39
0.49571046 0.54773307 0.28001052 4.7077323e-39
0.49341181 0.54757804 0.27998394 5.0721932e-39
0.49111313 0.54742306 0.27995723 4.8877921e-39
0.48881444 0.54726809 0.27993065 4.7048428e-39
0.48656565 0.5487777 0.2838313 4.8885194e-39
0.48421708 0.54695809 0.27987736 4.9792871e-39
0.48191842 0.54680306 0.27985066 4.7949084e-39
0.47961974 0.54664809 0.27982408 4.6112262e-39
0.47730166 0.54483044 0.27587014 4.5193809e-39
0.47499591 0.54259837 0.27093476 4.3349897e-39
0.47271439 0.54244453 0.27090842 4.242794e-39
0.4704285 0.54436696 0.27579051 4.0584042e-39
0.46813744 0.54421252 0.27576393 3.4141194e-39
0.46584639 0.54405802 0.27573746 2.7716338e-39
0.46355534 0.54390353 0.27571088 3.1375465e-39
0.46130678 0.54167533 0.27077621 3.5056045e-39
0.45902523 0.54152143 0.27074975 3.6885567e-39
0.45674372 0.54136759 0.27072328 3.7818271e-39
0.45451903 0.53955632 0.26677066 4.0576909e-39
0.45218068 0.54105991 0.27067035 4.2417192e-39
0.44989914 0.54090607 0.27064401 4.2435101e-39
0.44769734 0.5390963 0.26669163 4.2431486e-39
0.4453361 0.54059839 0.27059108 4.519011e-39
0.44305459 0.54044455 0.27056462 4.7941601e-39
0.44087565 0.53863633 0.26661259 4.4271769e-39
0.43860176 0.53848302 0.26658624 4.0587573e-39
0.43644571 0.53667641 0.26263422 3.875445e-39
0.43417943 0.53652358 0.26260799 3.5985106e-39
0.43191314 0.53637075 0.26258177 3.2304596e-39
0.42978761 0.53456616 0.25863034 2.7691115e-39
0.42752895 0.53441381 0.25860411 2.3985227e-39
0.42527029 0.53426152 0.258578 1.9400809e-39
0.42301166 0.53410923 0.25855178 1.4794867e-39
0.42092422 0.53230721 0.2546007 1.022812e-39
0.41849434 0.53380466 0.25849944 1.7578462e-39
0.41642216 0.53200358 0.25454849 2.4032115e-39
0.41417113 0.53185183 0.25452238 2.4042947e-39
0.4119201 0.53170002 0.2544964 2.3128207e-39
0.40966907 0.53154826 0.25447029 2.3135396e-39
0.407635 0.52974981 0.25051969 2.2206363e-39
0.4053916 0.52959853 0.25049371 1.9444221e-39
0.40338039 0.52780163 0.24654359 1.5756382e-39
0.40114462 0.52765089 0.24651772 1.2976136e-39
0.39890885 0.52750009 0.24649173 1.0217358e-39
0.39692816 0.52570528 0.24254173 9.2737792e-40
0.39443731 0.52719861 0.24643999 8.3662002e-40
0.39220151 0.52704787 0.24641401 1.2032473e-39
0.38996574 0.52689707 0.24638814 1.5720145e-39
0.38715881 0.53003037 0.25420946 1.9386292e-39
0.38490778 0.52987862 0.25418335 2.3074145e-39
0.38265675 0.5297268 0.25415725 2.7673178e-39
0.38009727 0.53121555 0.25805444 3.1357416e-39
0.3781547 0.52942324 0.25410503 3.3204944e-39
0.37590367 0.52927148 0.25407892 3.5048759e-39
0.37365264 0.52911967 0.25405294 3.5052276e-39
0.37140161 0.52896792 0.25402683 3.4137494e-39
0.36915058 0.5288161 0.25400072 3.4137494e-39
0.36689955 0.52866435 0.25397462 3.4137578e-39
0.36501035 0.52687562 0.25002569 3.4137662e-39
0.36276695 0.52672434 0.2499997 3.3212049e-39
0.36052355 0.52657306 0.24997371 3.136808e-39
0.35828015 0.52642184 0.24994773 2.9520538e-39
0.35603675 0.52627057 0.24992174 2.859854e-39
0.35379335 0.52611929 0.24989575 2.6769019e-39
0.35154992 0.52596802 0.24986976 2.4935924e-39
0.34972173 0.52418345 0.24592179 2.3095599e-39
0.34748596 0.52403271 0.2458958 2.4010338e-39
0.34525019 0.52388191 0.24586993 2.4935938e-39
0.34345245 0.52209944 0.24192208 2.4017667e-39
0.34122431 0.52194917 0.24189621 2.2177412e-39
0.33899617 0.52179891 0.24187046 2.6758481e-39
0.336768 0.52164871 0.24184459 3.1371808e-39
0.33453983 0.52149844 0.24181885 3.228303e-39
0.33183551 0.52297741 0.24571449 3.321572e-39
0.33008355 0.52119797 0.24176711 3.4130474e-39
0.32736397 0.52267587 0.24566263 3.4134033e-39
0.32562721 0.52089745 0.24171549 3.5048787e-39
0.32339907 0.52074724 0.24168974 3.5974274e-39
0.32168519 0.51897037 0.23774308 3.5977834e-39
0.31946468 0.51882064 0.23771733 3.5055877e-39
0.3177737 0.51704532 0.23377067 3.3219167e-39
0.31609797 0.51527107 0.22982436 3.1368122e-39
0.31389272 0.51512235 0.22979885 2.5865181e-39
0.31223983 0.51334959 0.22585279 1.9411529e-39
0.31004214 0.51320142 0.22582728 1.757119e-39
0.30784452 0.51305324 0.22580189 1.5716445e-39
0.30564684 0.51290506 0.22577637 1.3850924e-39
0.30388635 0.51154041 0.2228108 1.1085112e-39
0.30125153 0.51260865 0.22572547 9.2269058e-40
0.29905388 0.51246047 0.22569996 6.4753862e-40
0.73580515 0.57237619 0.30842751 3.2286631e-39
0.73345697 0.57221788 0.30840021 3.1368304e-39
0.73005497 0.56992143 0.30345184 3.3212203e-39
0.72771633 0.56976372 0.30342478 3.506322e-39
0.72537756 0.56960601 0.3033976 3.5981519e-39
0.72303885 0.56944835 0.30337054 3.6910846e-39
0.72070014 0.56929064 0.30334347 3.6914644e-39
0.71836144 0.56913292 0.3033163 3.5996163e-39
0.71602273 0.56897527 0.30328923 3.7832746e-39
0.6570347 0.53936565 0.24173301 2.8609512e-39
0.65481418 0.53921592 0.24170727 3.0449767e-39
0.65259361 0.5390662 0.24168152 3.1375297e-39
0.6503731 0.53891647 0.24165589 3.3201231e-39
0.64815259 0.53876674 0.24163014 3.5037983e-39
0.64593208 0.53861701 0.24160439 3.5045185e-39
0.62247455 0.56266731 0.30220515 1.7517156e-39
0.61965126 0.56082326 0.29824501 1.4744126e-39
0.61732018 0.56066608 0.29821807 1.3825743e-39
0.61451972 0.55882359 0.29425842 1.2907402e-39
0.61265802 0.56035173 0.29816407 1.291099e-39
0.60987282 0.55851024 0.29420465 1.1992593e-39
0.60754937 0.5583536 0.29417771 1.2907318e-39
0.60522592 0.5581969 0.29415077 1.290736e-39
0.60290241 0.55804026 0.29412383 1.1992621e-39
0.60057902 0.55788356 0.29409689 1.107072e-39
0.59867156 0.55940861 0.29800195 1.198553e-39
0.59674883 0.56093264 0.301907 1.2900298e-39
0.5940094 0.55909425 0.29794794 1.2903871e-39
0.59167832 0.55893707 0.29792088 1.290034e-39
0.58973277 0.56045955 0.3018257 1.1982027e-39
0.58786643 0.56240076 0.30671304 1.1981971e-39
0.58551818 0.56224245 0.30668586 1.1985502e-39
0.58316994 0.56208408 0.30665869 1.2903829e-39
0.58082169 0.56192577 0.30663151 1.2907374e-39
0.57847345 0.5617674 0.30660421 1.290743e-39
0.57612526 0.56160909 0.30657703 1.2903885e-39
0.57377702 0.56145072 0.30654985 1.290743e-39
0.57142878 0.56129241 0.30652267 1.2907388e-39
0.56908053 0.56113404 0.30649537 1.2907388e-39
0.56634569 0.55888259 0.30155474 1.1989033e-39
0.56370533 0.55705088 0.29759675 1.1070678e-39
0.56137425 0.55689365 0.29756969 1.0159498e-39
0.55904323 0.55673647 0.29754275 9.2446883e-40
0.55699086 0.5582518 0.30144626 9.2446462e-40
0.55465221 0.55809408 0.3014192 9.2446462e-40
0.55231351 0.55793637 0.30139214 9.2374716e-40
0.5499748 0.55777872 0.30136496 1.0152239e-39
0.54794645 0.55970895 0.30625051 8.3155293e-40
0.54559821 0.55955064 0.30622333 7.3972724e-40
0.54324996 0.55939227 0.30619603 8.3192988e-40
0.54090172 0.55923396 0.30616885 8.3156554e-40
0.53855348 0.55907559 0.30614167 8.3155994e-40
0.53620523 0.55891728 0.30611438 9.2267657e-40
0.51285684 0.55899662 0.30977112 7.382811e-40
0.51050097 0.55883771 0.30974382 9.2194789e-40
0.5085308 0.56407934 0.32248467 1.1052798e-39
0.50603914 0.56225765 0.31852835 1.6581046e-39
0.50353682 0.56002182 0.31359035 2.2123336e-39
0.50055063 0.54907155 0.28802866 3.782134e-39
0.49823672 0.54891551 0.28800184 5.4409589e-39
0.49576169 0.54544133 0.28011864 5.1654972e-39
0.49339008 0.54362768 0.27616376 4.9803759e-39
0.49116433 0.54513133 0.28006536 4.8881662e-39
0.48886564 0.54497635 0.28003865 4.7963308e-39
0.48661703 0.54647839 0.28393978 4.7041365e-39
0.48431072 0.54632282 0.28391308 4.7030617e-39
0.48200443 0.54616731 0.28388637 4.6108675e-39
0.47969812 0.54601181 0.28385955 4.5190278e-39
0.47737226 0.54420131 0.2799055 4.4268294e-39
0.47507358 0.54404634 0.27987891 4.3346337e-39
0.4727706 0.54223734 0.27592474 4.2427968e-39
0.47047624 0.54373634 0.27982563 4.1509613e-39
0.46817756 0.54358137 0.27979892 3.7829005e-39
0.46587887 0.54342633 0.27977234 3.5077541e-39
0.46360639 0.54161936 0.27581865 3.6907091e-39
0.46131533 0.54146492 0.27579206 3.8747374e-39
0.45902428 0.54131043 0.27576548 3.8740171e-39
0.45673323 0.54115593 0.27573889 3.9665729e-39
0.45451301 0.53893912 0.27080411 4.0580525e-39
0.45215112 0.54084694 0.27568585 4.1495292e-39
0.44994998 0.53863144 0.2707513 4.150604e-39
0.44766846 0.5384776 0.27072483 4.2427954e-39
0.44538695 0.53832376 0.27069837 4.24315e-39
0.4431054 0.53816992 0.2706719 4.334268e-39
0.44082388 0.53801608 0.27064544 3.8747318e-39
0.43854237 0.53786224 0.27061909 3.4141138e-39
0.43626085 0.5377084 0.27059263 2.7705408e-39
0.43397933 0.53755456 0.27056617 2.1276966e-39
0.4318307 0.53575605 0.26661414 2.3102942e-39
0.42969736 0.53395849 0.26266199 2.583986e-39
0.42757925 0.53216201 0.25871032 2.4921294e-39
0.42532063 0.53200972 0.2586841 2.3985339e-39
0.42306197 0.53185743 0.25865799 2.3096019e-39
0.42080331 0.53170508 0.25863177 2.1280805e-39
0.41854465 0.53155279 0.25860566 2.5876139e-39
0.41647232 0.52975935 0.25465435 2.9567468e-39
0.41422129 0.52960759 0.25462824 2.8641896e-39
0.41197026 0.52945578 0.25460213 2.7727156e-39
0.40971923 0.52930403 0.25457615 2.5883286e-39
0.40768498 0.52751315 0.25062519 2.495777e-39
0.40544158 0.52736187 0.25059921 2.1273588e-39
0.40319818 0.52721059 0.2505731 1.6656702e-39
0.40119445 0.52542186 0.24662274 1.4809216e-39
0.39895865 0.52527106 0.24659687 1.2043221e-39
0.39672288 0.52512032 0.246571 1.2957807e-39
0.39422458 0.52660555 0.25046915 1.4798188e-39
0.391711 0.5280897 0.25436741 1.7553323e-39
0.38945997 0.52793795 0.2543413 2.0319122e-39
0.38692355 0.52942061 0.25823921 2.3077746e-39
0.38466489 0.52926832 0.25821298 2.5843615e-39
0.38240623 0.52911603 0.25818688 2.8605897e-39
0.38014761 0.52896369 0.25816065 3.2283016e-39
0.37820485 0.527179 0.25421089 3.3208644e-39
0.37595382 0.52702725 0.25418478 3.4130488e-39
0.37337166 0.52850682 0.25808221 3.5052318e-39
0.37145177 0.52672368 0.25413269 3.6892573e-39
0.36920077 0.52657187 0.25410658 3.4137452e-39
0.36694974 0.52642012 0.25408047 3.1375353e-39
0.36469871 0.5262683 0.25405437 3.0460725e-39
0.36244768 0.52611649 0.25402826 3.0449851e-39
0.36019665 0.52596474 0.25400227 2.7676738e-39
0.35794562 0.52581292 0.25397617 2.4903624e-39
0.35569459 0.52566117 0.25395006 2.2159195e-39
0.35344356 0.52550936 0.25392395 1.9411361e-39
0.35159993 0.52373135 0.24997526 2.2173642e-39
0.34935653 0.52358007 0.24994916 2.4935812e-39
0.3471131 0.5234288 0.24992317 2.493214e-39
0.34486973 0.52327758 0.24989718 2.5843419e-39
0.34306419 0.52150214 0.24594921 2.1255315e-39
0.34082842 0.5213514 0.24592322 1.7585553e-39
0.33904579 0.5195775 0.24197525 2.5857992e-39
0.33681762 0.51942724 0.24194938 3.4130376e-39
0.33458948 0.51927704 0.24192351 3.597426e-39
0.33188534 0.52074838 0.24581963 3.8732927e-39
0.3301332 0.51897651 0.24187189 3.5977876e-39
0.32790503 0.51882631 0.24184614 3.4141166e-39
0.32567686 0.51867604 0.24182028 3.4141166e-39
0.32344872 0.51852578 0.24179441 3.4144725e-39
0.32173467 0.51675653 0.23784751 2.9542146e-39
0.31951416 0.51660681 0.23782176 2.5865111e-39
0.31782299 0.51483911 0.23387474 2.399966e-39
0.31614709 0.51307243 0.22992808 2.2141455e-39
0.31394184 0.51292372 0.22990257 1.8460874e-39
0.31228879 0.51115859 0.22595614 1.4769448e-39
0.31009114 0.51101035 0.22593063 1.3851023e-39
0.30789346 0.51086217 0.22590512 1.3825813e-39
0.73585749 0.57003504 0.3085379 2.3989067e-39
0.73244584 0.56774747 0.30358893 2.3992668e-39
0.73010707 0.56758976 0.30356175 2.5829392e-39
0.72776842 0.56743205 0.30353469 2.7680423e-39
0.72542965 0.56727433 0.30350763 2.7691157e-39
0.72309095 0.56711668 0.30348045 2.7691297e-39
0.72075224 0.56695896 0.30345339 2.8620554e-39
0.71841353 0.56680125 0.30342633 2.954244e-39
0.71607482 0.5666436 0.30339915 3.4155683e-39
0.65708417 0.53715181 0.24183744 3.1371766e-39
0.65423399 0.53531355 0.23787671 3.1371709e-39
0.65202105 0.53516436 0.23785096 3.1364535e-39
0.64980817 0.53501511 0.23782533 3.3186895e-39
0.66382682 0.57999271 0.34305173 3.5030752e-39
0.66140997 0.57982969 0.34302372 3.6878196e-39
0.62314224 0.56243473 0.30723172 1.4751315e-39
0.620794 0.56227636 0.30720443 1.2911004e-39
0.61999661 0.56757236 0.31995994 1.2907388e-39
0.61609751 0.56195968 0.30715007 1.2907416e-39
0.61374927 0.56180137 0.30712289 1.2903857e-39
0.61037886 0.55787051 0.29824656 1.2907402e-39
0.60760111 0.55603713 0.29428691 1.2903773e-39
0.60527766 0.55588043 0.29425997 1.1989005e-39
0.60295421 0.55572379 0.29423302 1.1985418e-39
0.60105455 0.55724174 0.29813856 1.1989019e-39
0.59913969 0.55875868 0.30204409 1.2907402e-39
0.59731168 0.56069297 0.30693239 1.2907388e-39
0.59496343 0.56053466 0.30690509 1.2907388e-39
0.59261519 0.56037629 0.30687791 1.2903843e-39
0.59026694 0.56021798 0.30685073 1.2900298e-39
0.58829677 0.56173116 0.31075555 1.1981915e-39
0.5859409 0.56157231 0.31072825 1.2896654e-39
0.58358508 0.56141347 0.31070095 1.2903787e-39
0.58122921 0.56125462 0.31067365 1.2910933e-39
0.57887334 0.56109577 0.31064636 1.2907388e-39
0.57651746 0.56093693 0.31061894 1.2900256e-39
0.57416165 0.56077808 0.31059164 1.2907416e-39
0.57148111 0.55895126 0.30663306 1.2907388e-39
0.56913286 0.55879289 0.30660576 1.2907416e-39
0.56639779 0.55655092 0.30166465 1.2907444e-39
0.5637573 0.55472684 0.29770631 1.2907416e-39
0.56142622 0.5545696 0.29767936 1.1077853e-39
0.55909514 0.55441242 0.2976523 9.241115e-40
0.55704302 0.55592012 0.30155629 9.2411009e-40
0.55470431 0.55576241 0.30152911 9.2411009e-40
0.5523656 0.5556047 0.30150205 9.2446883e-40
0.55060303 0.5591895 0.31031865 8.3191306e-40
0.54799873 0.5573678 0.3063609 8.3083546e-40
0.54565048 0.55720949 0.30633372 8.311998e-40
0.5433023 0.55705112 0.30630642 8.3192427e-40
0.54095405 0.55689281 0.30627924 8.3192147e-40
0.53860581 0.55673444 0.30625206 1.0155897e-39
0.53625757 0.55657613 0.30622488 1.1067063e-39
0.51096451 0.5618664 0.32262415 9.2267096e-40
0.50858384 0.56170589 0.32259661 1.1981901e-39
0.50609201 0.55989182 0.31863993 1.8417686e-39
0.50358951 0.55766547 0.31370145 2.4899883e-39
0.50122601 0.55750608 0.31367415 4.5225549e-39
0.49802321 0.5416525 0.27632457 6.5429736e-39
0.49573216 0.54149801 0.27629799 5.7161333e-39
0.49351421 0.54299456 0.28020006 4.8885306e-39
0.491281 0.54449004 0.28410167 4.8881662e-39
0.48897472 0.54433453 0.28407496 4.8878075e-39
0.48671862 0.54582846 0.28797656 4.6115822e-39
0.4843621 0.54402351 0.28402144 4.3357183e-39
0.48205581 0.54386801 0.28399473 4.3350023e-39
0.4797495 0.5437125 0.28396803 4.3349967e-39
0.47744322 0.54355699 0.28394133 4.3346337e-39
0.47513691 0.54340148 0.28391463 4.2427982e-39
0.47282612 0.54159957 0.27996033 4.243157e-39
0.47052431 0.54309046 0.2838611 4.2431584e-39
0.46822876 0.54128957 0.27990705 4.242801e-39
0.46591169 0.54277939 0.28380769 4.1509641e-39
0.46363142 0.54097956 0.27985376 4.1509627e-39
0.46133274 0.54082459 0.27982706 4.1506012e-39
0.45903406 0.54066956 0.27980047 4.1502397e-39
0.45673537 0.54051459 0.27977389 4.1502411e-39
0.45449322 0.53871733 0.27582008 4.1495236e-39
0.45220217 0.53856283 0.27579361 4.0580511e-39
0.44991112 0.53840834 0.27576703 4.1506068e-39
0.44762006 0.53825384 0.27574044 4.1506012e-39
0.44532901 0.53809935 0.27571398 3.9676421e-39
0.44303796 0.53794491 0.2756874 3.782532e-39
0.4407469 0.53779042 0.27566081 3.2315162e-39
0.43859321 0.53558761 0.27072626 2.6779921e-39
0.43631166 0.53543377 0.27069992 1.6652919e-39
0.43403015 0.53527993 0.27067345 6.5654196e-40
0.43188137 0.53348899 0.26672107 1.4827069e-39
0.42960748 0.53333569 0.26669472 2.3110074e-39
0.42733359 0.53318232 0.26666838 2.5875761e-39
0.4252153 0.53139341 0.262716 2.863105e-39
0.42294902 0.53124058 0.26268977 3.0485921e-39
0.42085361 0.52945328 0.25873798 3.2329735e-39
0.41859499 0.52930099 0.25871187 3.41592e-39
0.41652244 0.52751511 0.25476021 3.5081129e-39
0.41407767 0.52899635 0.25865942 3.3233643e-39
0.41181904 0.52884406 0.25863332 3.139336e-39
0.40976936 0.52705979 0.25468189 2.9545916e-39
0.40751833 0.52690798 0.2546559 2.770922e-39
0.4052673 0.52675623 0.25462979 2.3110284e-39
0.40301627 0.52660441 0.25460368 1.7585763e-39
0.40076527 0.52645266 0.25457758 1.5720313e-39
0.39851424 0.52630085 0.25455147 1.3890665e-39
0.39626321 0.52614909 0.25452548 1.7556798e-39
0.39374983 0.52762568 0.25842386 2.0315493e-39
0.39122117 0.52910119 0.26232213 2.3067012e-39
0.38923252 0.5273211 0.25837153 2.4918071e-39
0.38697386 0.52716875 0.25834543 2.6765543e-39
0.38471523 0.52701646 0.2583192 2.769466e-39
0.38245657 0.52686417 0.25829309 3.0464088e-39
0.38019791 0.52671188 0.25826687 3.3215636e-39
0.37793928 0.52655959 0.25824064 3.3212133e-39
0.37600398 0.52478302 0.25429064 3.2293694e-39
0.37342197 0.52625495 0.25818831 3.5963456e-39
0.37116331 0.52610266 0.2581622 3.8725668e-39
0.36890465 0.52595037 0.25813597 3.3219097e-39
0.36664602 0.52579808 0.25810987 2.7701877e-39
0.36438736 0.52564579 0.25808364 2.7709136e-39
0.3621287 0.5254935 0.25805753 2.6772802e-39
0.35987008 0.52534115 0.25803131 2.3067054e-39
0.35761142 0.52518886 0.25800508 1.9400711e-39
0.35535276 0.52503657 0.25797898 1.5720032e-39
0.3530941 0.52488428 0.25795275 1.2061018e-39
0.35124266 0.52311337 0.2540037 1.9407914e-39
0.34899166 0.52296156 0.2539776 2.5850678e-39
0.34674063 0.5228098 0.25395149 2.6768977e-39
0.3444896 0.52265799 0.2539255 2.6769061e-39
0.34267628 0.52088964 0.24997669 1.9411543e-39
0.34087825 0.51912236 0.24602836 1.2075479e-39
0.33864248 0.51897162 0.2460025 2.4035646e-39
0.33686727 0.51720577 0.24205416 3.597789e-39
0.33463913 0.51705557 0.2420283 4.0587657e-39
0.33193511 0.51851934 0.24592477 4.4253818e-39
0.33018282 0.51675504 0.24197668 3.8743618e-39
0.32795465 0.51660484 0.24195081 3.3226272e-39
0.32572651 0.51645458 0.24192506 3.2311476e-39
0.32400468 0.51469243 0.23797756 3.136801e-39
0.32178414 0.5145427 0.23795182 2.402117e-39
0.31956363 0.51439297 0.23792607 1.572006e-39
0.31734309 0.51424325 0.23790044 1.4772951e-39
0.3156594 0.5124836 0.23395318 1.2921892e-39
0.31344649 0.51233441 0.23392755 1.1982013e-39
0.31123358 0.51218522 0.2339018 1.0152435e-39
0.3090207 0.51203597 0.23387617 1.1067147e-39
0.30680776 0.51188678 0.23385054 1.1067105e-39
0.74530274 0.56832725 0.30875713 2.3992612e-39
0.74295449 0.56816894 0.30872995 2.3985395e-39
0.74060625 0.56801057 0.30870265 2.3070572e-39
0.73717535 0.56573123 0.30375308 2.214507e-39
0.73483658 0.56557351 0.3037259 2.2141511e-39
0.73356158 0.56753558 0.30862111 2.2134336e-39
0.73121333 0.56737721 0.30859381 2.2141511e-39
0.72886509 0.5672189 0.30856663 2.3052691e-39
0.72651684 0.56706053 0.30853945 2.1226743e-39
0.7241686 0.56690222 0.30851227 1.9379341e-39
0.72182041 0.56674385 0.30848497 2.1234058e-39
0.71947217 0.56658554 0.30845779 2.3070782e-39
0.71712393 0.56642717 0.30843061 2.5843783e-39
0.65713364 0.53493798 0.24194187 3.4123257e-39
0.65428329 0.53310734 0.23798066 3.2286477e-39
0.65207034 0.53295815 0.23795503 3.1364549e-39
0.66552931 0.57564622 0.33827442 3.1353787e-39
0.663122 0.57548386 0.33824652 3.2264869e-39
0.66071469 0.57532156 0.33821863 3.227912e-39
0.63666058 0.56632656 0.32026392 2.6754823e-39
0.63428754 0.56616652 0.3202365 2.4907239e-39
0.62319458 0.56009358 0.30734211 1.2914591e-39
0.62290746 0.56703764 0.32403272 1.2907402e-39
0.62052679 0.56687713 0.32400507 1.2907388e-39
0.61814618 0.56671661 0.32397753 1.2903857e-39
0.61576557 0.5665561 0.32394987 1.2903899e-39
0.61236233 0.56264007 0.31507248 1.2903857e-39
0.60999882 0.56248069 0.31504518 1.1989047e-39
0.60763538 0.56232131 0.31501776 1.1074238e-39
0.60527188 0.56216198 0.31499034 1.1074196e-39
0.60206044 0.55866849 0.30709714 1.1077783e-39
0.60012853 0.56017673 0.31100279 1.199255e-39
0.59777272 0.56001788 0.31097549 1.3825673e-39
0.59541684 0.55985898 0.31094819 1.2907318e-39
0.59306103 0.55970013 0.31092089 1.290736e-39
0.59109098 0.56120574 0.31482595 1.1985446e-39
0.58872747 0.56104636 0.31479865 1.1985446e-39
0.58636403 0.56088704 0.31477123 1.2903787e-39
0.58400053 0.56072766 0.31474382 1.2903759e-39
0.58163702 0.56056827 0.3147164 1.2907318e-39
0.57892585 0.55874699 0.3107571 1.2903773e-39
0.57656997 0.55858815 0.3107298 1.2903801e-39
0.5742141 0.5584293 0.3107025 1.2907388e-39
0.55709511 0.55358845 0.3016662 1.1070664e-39
0.55719984 0.56834161 0.33701915 1.1074252e-39
0.55479252 0.56817925 0.33699125 1.0155897e-39
0.55238521 0.56801695 0.33696336 9.2446743e-40
0.5499779 0.56785464 0.33693546 9.2338702e-40
0.5459438 0.55652308 0.3103748 1.0145093e-39
0.54358798 0.55636418 0.3103475 1.0152309e-39
0.54123211 0.55620533 0.3103202 1.0163071e-39
0.53865814 0.55439329 0.30636245 1.0152295e-39
0.51577878 0.55981404 0.32279128 7.3971463e-40
0.51339817 0.55965352 0.32276362 6.4788334e-40
0.5110175 0.55949295 0.32273608 9.230353e-40
0.50863689 0.55933243 0.32270843 1.1063546e-39
0.50614488 0.55752593 0.31875151 1.4740609e-39
0.50377184 0.55736595 0.31872398 1.8417532e-39
0.5013988 0.55720592 0.31869656 3.3207985e-39
0.49862748 0.54964602 0.30098873 4.8906409e-39
0.49602589 0.54414564 0.28819257 4.7059232e-39
0.49371195 0.5439896 0.28816575 4.5208215e-39
0.49133238 0.54219073 0.28421015 4.6126598e-39
0.48908412 0.54367757 0.2881121 4.7956119e-39
0.48677018 0.54352152 0.28808528 4.6115808e-39
0.48445627 0.54336548 0.28805846 4.4275524e-39
0.48214233 0.54320949 0.28803164 4.5190306e-39
0.47980088 0.54141313 0.28407651 4.6108619e-39
0.4774946 0.54125762 0.28404969 4.4268266e-39
0.47518829 0.54110211 0.28402299 4.2427982e-39
0.47288197 0.5409466 0.28399628 4.243157e-39
0.47057569 0.54079109 0.28396958 4.2435199e-39
0.46826938 0.54063559 0.28394288 4.4271951e-39
0.46596307 0.54048008 0.28391606 4.6105032e-39
0.46365678 0.54032457 0.28388935 4.5186635e-39
0.46135047 0.54016906 0.28386265 4.4268252e-39
0.45904416 0.54001355 0.28383595 4.3346267e-39
0.45673788 0.53985804 0.28380924 4.2424311e-39
0.45448792 0.53806782 0.27985531 4.0584e-39
0.45218924 0.53791285 0.27982861 3.9665729e-39
0.44989055 0.53775781 0.27980202 3.6907147e-39
0.44759187 0.53760284 0.27977532 3.5063178e-39
0.44529319 0.53744787 0.27974874 3.1378912e-39
0.44308898 0.53566074 0.27579504 2.862019e-39
0.44079792 0.53550625 0.27576858 2.5850706e-39
0.43850687 0.53535175 0.27574199 2.3092138e-39
0.43621582 0.53519726 0.27571541 1.8500447e-39
0.43392476 0.53504276 0.27568895 1.4834272e-39
0.43163371 0.53488827 0.27566236 2.0362394e-39
0.42951792 0.53269762 0.27072781 2.5890404e-39
0.42723641 0.53254378 0.27070135 2.9570943e-39
0.42511034 0.53076196 0.26674885 3.4177179e-39
0.42283642 0.53060859 0.2667225 3.6024763e-39
0.42073324 0.52882832 0.26277012 3.787571e-39
0.41864529 0.52704912 0.25881797 3.7857661e-39
0.41638666 0.52689683 0.25879186 3.8768842e-39
0.41412801 0.52674448 0.25876564 3.8754492e-39
0.41186935 0.5265922 0.25873953 3.8740171e-39
0.40961069 0.52643991 0.2587133 3.5981547e-39
0.40735203 0.52628762 0.2586872 3.322651e-39
0.4050934 0.52613533 0.25866097 3.0467872e-39
0.40283474 0.52598304 0.25863475 2.6790781e-39
0.40057608 0.52583069 0.25860864 2.4939637e-39
0.39831746 0.5256784 0.25858241 2.3095711e-39
0.39580423 0.52714735 0.26248115 2.4003248e-39
0.39353794 0.52699459 0.26245493 2.4925204e-39
0.39100185 0.52846205 0.26635367 2.6761914e-39
0.38900539 0.52668893 0.26240236 2.8605827e-39
0.38673913 0.52653611 0.26237613 2.9531384e-39
0.38447285 0.52638328 0.2623499 3.046406e-39
0.38220656 0.52623051 0.26232356 3.4137452e-39
0.3799403 0.52607769 0.26229733 3.7814516e-39
0.37798959 0.52430773 0.25834686 3.5055905e-39
0.37573093 0.52415544 0.25832075 3.2300798e-39
0.37314147 0.52561927 0.26221853 3.321551e-39
0.37087518 0.52546644 0.26219231 3.3219097e-39
0.36895499 0.52369851 0.25824219 2.6779837e-39
0.36634266 0.52516079 0.26213974 2.0344205e-39
0.36407638 0.52500796 0.26211351 2.4024828e-39
0.36181009 0.5248552 0.26208729 2.7694688e-39
0.35954383 0.52470237 0.26206094 2.4928889e-39
0.35727754 0.52454954 0.26203471 2.3088536e-39
0.35540307 0.52278471 0.25808519 2.2170125e-39
0.352745 0.52424389 0.26198214 2.0340646e-39
0.35088578 0.52248013 0.25803286 2.7687542e-39
0.34904182 0.52071732 0.25408345 3.5037927e-39
0.34679079 0.52056551 0.25405735 3.1368038e-39
0.34453976 0.52041376 0.25403124 2.8616645e-39
0.34272626 0.51865304 0.25008219 2.4014178e-39
0.34048286 0.51850176 0.25005621 2.0333555e-39
0.33823946 0.51835048 0.25003022 2.6787123e-39
0.33691692 0.51498437 0.24215895 3.3219293e-39
0.33468875 0.51483417 0.24213308 3.4148495e-39
0.33246061 0.5146839 0.24210721 3.5073856e-39
0.33023244 0.51453364 0.24208146 2.9542034e-39
0.3280043 0.51438344 0.24205559 2.3109906e-39
0.32577616 0.51423317 0.24202985 2.215202e-39
0.32354799 0.51408291 0.24200398 2.0297416e-39
0.32183361 0.51232886 0.23805624 1.6613262e-39
0.3196131 0.51217914 0.23803049 1.2911088e-39
0.31739256 0.51202941 0.23800474 1.1992663e-39
0.31517202 0.51187968 0.23797911 1.1056357e-39
0.31349578 0.5101282 0.2340315 1.0137974e-39
0.30685705 0.50968057 0.23395461 1.0145093e-39
0.74860013 0.56783575 0.31283349 1.9393564e-39
0.74535507 0.5659861 0.30886751 1.9382788e-39
0.74300683 0.56582779 0.30884033 1.9389907e-39
0.73956609 0.56355721 0.30389017 1.9393438e-39
0.73722744 0.56339955 0.30386299 1.9386334e-39
0.73488867 0.56324184 0.30383593 1.9379229e-39
0.73361385 0.56519443 0.3087315 1.9379229e-39
0.73126566 0.56503606 0.3087042 1.9379229e-39
0.72891742 0.56487775 0.30867702 1.8457273e-39
0.72739744 0.56640607 0.3125878 1.4776664e-39
0.72504157 0.56624722 0.3125605 1.1106874e-39
0.72268569 0.56608838 0.3125332 1.3858393e-39
0.72032982 0.56592953 0.3125059 1.5705851e-39
0.71797395 0.56577063 0.3124786 1.7538974e-39
0.66419977 0.56948352 0.32953292 3.0431831e-39
0.66256851 0.57141203 0.33442432 2.9506259e-39
0.66016877 0.57125026 0.33439654 2.8595037e-39
0.6562894 0.56691158 0.3245309 2.6765529e-39
0.65390873 0.566751 0.32450324 2.7698262e-39
0.65152812 0.56659049 0.32447571 2.8609428e-39
0.64914751 0.56642997 0.32444805 3.0453312e-39
0.64620548 0.56460077 0.32048553 3.136092e-39
0.64383245 0.56444073 0.32045799 2.8605869e-39
0.64200556 0.56594843 0.32436532 2.5832853e-39
0.63908643 0.56412071 0.32040304 2.3067012e-39
0.63671345 0.56396067 0.3203755 1.9375586e-39
0.63434041 0.56380069 0.32034808 1.8439224e-39
0.63248301 0.56530631 0.32425493 1.6606031e-39
0.63073742 0.56722713 0.32914513 1.3840148e-39
0.62772179 0.56498528 0.32419974 1.1077881e-39
0.62534112 0.5648247 0.3241722 1.1989047e-39
0.62296051 0.56466419 0.32414466 1.2907416e-39
0.62057984 0.56450367 0.324117 1.2911032e-39
0.61819923 0.56434315 0.32408947 1.2903871e-39
0.61639643 0.56626016 0.32897896 1.2900312e-39
0.61400628 0.56609899 0.3289513 1.2907444e-39
0.61161608 0.56593782 0.32892364 1.1070692e-39
0.60922593 0.56577665 0.32889587 9.241129e-40
0.60586429 0.56188053 0.32001799 1.0163057e-39
0.60349125 0.56172055 0.31999058 1.015947e-39
0.60111821 0.56156051 0.31996304 1.1992593e-39
0.59915411 0.56305897 0.32386869 1.3829316e-39
0.59637219 0.56124049 0.31990808 1.2907402e-39
0.59399921 0.56108052 0.31988055 1.1989047e-39
0.59162617 0.56092048 0.31985301 1.1985446e-39
0.58925319 0.5607605 0.31982559 1.1985446e-39
0.58688015 0.56060046 0.31979805 1.2903801e-39
0.58450711 0.56044042 0.31977051 1.2907374e-39
0.58168972 0.55821192 0.31482762 1.290736e-39
0.57932621 0.55805254 0.3148002 1.2903829e-39
0.57662249 0.55623937 0.31084055 1.2900312e-39
0.5600099 0.56816596 0.34207469 1.1985446e-39
0.55725348 0.56594151 0.33713228 1.198546e-39
0.55484617 0.56577921 0.33710438 1.1063546e-39
0.55243886 0.56561691 0.33707649 1.0152309e-39
0.55003154 0.56545454 0.33704859 1.1070608e-39
0.54762423 0.56529224 0.3370207 1.1067049e-39
0.54521686 0.56512988 0.3369928 1.106349e-39
0.54128456 0.55385655 0.31043106 1.1070636e-39
0.51839954 0.55965227 0.32784337 8.3155433e-40
0.51600939 0.5594911 0.32781571 7.3971883e-40
0.51361924 0.55932993 0.32778794 6.4752601e-40
0.51107055 0.55711949 0.32284802 8.3084107e-40
0.50868994 0.55695897 0.32282037 1.0141589e-39
0.50619769 0.55516011 0.31886309 1.1056413e-39
0.50392866 0.55663794 0.32276517 1.1989103e-39
0.50145167 0.55484003 0.31880802 2.2112532e-39
0.49879044 0.54936039 0.30601031 3.1371625e-39
0.49617878 0.54388404 0.29321295 3.6046119e-39
0.49376351 0.54168266 0.28827459 4.0619985e-39
0.49144959 0.54152662 0.28824776 4.3371505e-39
0.48913565 0.54137057 0.28822094 4.6115822e-39
0.48682174 0.54121453 0.28819412 4.6112248e-39
0.4845078 0.54105854 0.2881673 4.5190334e-39
0.48219389 0.5409025 0.28814048 4.7027072e-39
0.47987995 0.54074645 0.28811365 4.7945371e-39
0.47756603 0.54059047 0.28808683 4.5186663e-39
0.47523966 0.53880274 0.28413147 4.2431612e-39
0.47293335 0.53864723 0.28410476 4.2435199e-39
0.47062427 0.54012239 0.28800637 4.2435255e-39
0.46831033 0.53996634 0.28797966 4.6112318e-39
0.46599641 0.5398103 0.28795284 4.9785654e-39
0.46370816 0.5380252 0.28399783 4.7945287e-39
0.46140185 0.53786969 0.28397113 4.6108535e-39
0.45909554 0.53771418 0.28394431 4.426821e-39
0.45678926 0.53755867 0.28391761 4.2427884e-39
0.45448294 0.53740317 0.2838909 4.0591146e-39
0.45224044 0.53562111 0.27993673 3.7825362e-39
0.44987035 0.53709209 0.2838375 3.3233629e-39
0.4476431 0.5353111 0.27988344 2.7698346e-39
0.44525775 0.53678107 0.28378397 2.3996199e-39
0.44304574 0.5350011 0.27983016 1.9404326e-39
0.44074705 0.53484613 0.27980357 1.9379117e-39
0.43855792 0.53306764 0.27584976 1.9411529e-39
0.43614972 0.53453612 0.27975029 2.1262714e-39
0.43385103 0.53438109 0.27972358 2.2202663e-39
0.43168476 0.53260416 0.27577001 2.589409e-39
0.42956877 0.53042293 0.2708351 2.8659917e-39
0.42728722 0.53026909 0.27080864 3.4173634e-39
0.425161 0.52849489 0.26685578 3.877987e-39
0.42288709 0.52834159 0.26682943 4.0634629e-39
0.42078373 0.52656889 0.26287657 4.2467583e-39
0.41851747 0.52641606 0.26285034 4.2467415e-39
0.41643697 0.52464497 0.25889808 4.2445863e-39
0.41417831 0.52449268 0.25887185 4.4271797e-39
0.41191965 0.52434039 0.25884575 4.5175803e-39
0.40945235 0.52580482 0.26274532 4.2413577e-39
0.40718609 0.52565199 0.26271909 3.8740213e-39
0.40514371 0.52388346 0.25876719 3.7825502e-39
0.40265355 0.5253464 0.26266652 3.5981505e-39
0.40014809 0.52680832 0.26656598 3.414827e-39
0.39787421 0.52665496 0.26653963 3.1371667e-39
0.39560032 0.52650166 0.26651329 3.0438949e-39
0.39306438 0.52796149 0.27041203 2.9524154e-39
0.39078286 0.52780765 0.27038568 3.0446082e-39
0.38850135 0.52765381 0.27035922 3.1368066e-39
0.3862198 0.52749997 0.27033275 3.2293638e-39
0.38393828 0.52734613 0.27030629 3.3215552e-39
0.38195691 0.52558166 0.2663551 3.7803711e-39
0.37968302 0.52542835 0.26632875 4.2399074e-39
0.3774091 0.52527505 0.26630241 3.7807299e-39
0.37513521 0.52512169 0.26627606 3.2293526e-39
0.37286133 0.52496839 0.26624972 3.0456774e-39
0.37058741 0.52481502 0.26622337 2.7690975e-39
0.36865941 0.52305418 0.26227254 2.0329814e-39
0.36603963 0.52450836 0.26617068 1.2075437e-39
0.36376572 0.52435505 0.26614434 2.0344261e-39
0.36186057 0.52259576 0.26219386 2.7694702e-39
0.35959432 0.52244294 0.26216751 2.7694702e-39
0.35771203 0.5206852 0.25821751 2.6776319e-39
0.3554534 0.52053291 0.25819129 2.7698248e-39
0.35319474 0.52038056 0.25816518 2.8616687e-39
0.35093608 0.52022827 0.25813895 3.6885567e-39
0.34867746 0.52007598 0.25811285 4.4232308e-39
0.34684092 0.51832134 0.25416321 3.687821e-39
0.34458989 0.51816952 0.2541371 2.9531454e-39
0.34233886 0.51801777 0.25411099 2.8616771e-39
0.33874208 0.51451355 0.24621266 2.8641616e-39
0.33696654 0.5127629 0.24226362 2.9538545e-39
0.33473837 0.5126127 0.24223787 2.7709122e-39
0.33251023 0.51246244 0.242212 2.5843615e-39
0.33028209 0.51231217 0.24218625 1.9400683e-39
0.32805395 0.51216197 0.24216038 1.2939842e-39
0.32582578 0.51201171 0.24213451 1.105284e-39
0.32359761 0.51186144 0.24210876 9.2340804e-40
0.32136947 0.51171124 0.24208289 9.2233185e-40
0.31914133 0.51156098 0.24205714 9.2268497e-40
0.78615153 0.57532007 0.33105797 4.9821682e-39
