# .PCD v0.7 - Point Cloud Data file format
VERSION 0.7
FIELDS x y z rgb
SIZE 4 4 4 4
TYPE F F F F
COUNT 1 1 1 1
WIDTH 196
HEIGHT 1
VIEWPOINT 0 0 0 1 0 0 0
POINTS 196
DATA ascii
0.036142468 0.26192614 0.0022836924 4.6137318e-39
0.034385085 0.26180765 0.0022633076 4.6130241e-39
0.036528349 0.26099238 0.0053366423 4.4304153e-39
0.034765244 0.26087347 0.0053162575 4.5215291e-39
0.034424216 0.26005557 0.0023459792 4.612664e-39
0.037978113 0.25854051 0.0024693012 4.1538396e-39
0.036220759 0.25842202 0.0024489164 4.4297048e-39
0.034463376 0.25830349 0.0024285913 4.6130269e-39
0.038017273 0.25678843 0.0025519133 4.428637e-39
0.034843802 0.25735795 0.005482018 4.5215501e-39
0.034502536 0.25655144 0.0025112033 4.6133898e-39
0.034883082 0.25560018 0.0055649281 4.6137416e-39
0.034541667 0.25479937 0.0025938153 4.6133856e-39
0.034619987 0.25129524 0.002759099 4.7052239e-39
0.034659117 0.24954318 0.002841711 4.7052281e-39
0.034698278 0.24779111 0.0029243231 4.7055827e-39
0.034737438 0.24603905 0.0030069351 4.7055785e-39
0.034776568 0.24428698 0.0030895472 4.7052211e-39
0.035197288 0.24153808 0.0062280893 4.7045093e-39
0.039348185 0.23884687 0.0014094114 4.7956189e-39
0.037594616 0.23872864 0.0013890862 4.7967063e-39
0.034894019 0.23903079 0.0033374429 4.7977881e-39
0.039387226 0.2370986 0.0014918447 5.0700464e-39
0.039048404 0.23635507 -0.0014818311 4.888539e-39
0.03493318 0.23727873 0.0034200549 4.7055925e-39
0.037078232 0.23638366 0.0064972043 4.5193907e-39
0.037672758 0.23523208 0.0015539527 4.6133884e-39
0.03497234 0.23552668 0.003502667 4.798144e-39
0.037117511 0.23462591 0.0065800548 3.968375e-39
0.039126277 0.23286992 -0.0013175011 4.4304349e-39
0.03595829 0.2333656 0.0016160607 4.7977811e-39
0.034204751 0.23324737 0.0015957355 4.8892635e-39
0.039165229 0.23112738 -0.0012353063 4.4297174e-39
0.035997361 0.23161733 0.0016985536 5.072926e-39
0.034243822 0.23149911 0.0016782284 5.0732862e-39
0.036036432 0.22986907 0.0017809868 5.2569544e-39
0.034282893 0.22975084 0.0017606616 5.3491514e-39
0.036075473 0.2281208 0.00186342 5.1654762e-39
0.034321934 0.22800258 0.0018430948 5.3487913e-39
0.037868083 0.2264908 0.0019661784 4.6141045e-39
0.036114544 0.22637254 0.0019458532 5.0736435e-39
0.034361005 0.22625431 0.001925528 5.4402708e-39
0.036964625 0.22513281 0.0040187836 4.4300762e-39
0.036153615 0.22462431 0.0020282865 4.9821682e-39
0.034400076 0.22450605 0.0020079613 5.1658419e-39
0.037003756 0.22338074 0.0041014552 4.1545739e-39
0.036192685 0.22287601 0.0021107793 4.7988629e-39
0.034439147 0.22275779 0.0020904541 4.9836157e-39
0.037985295 0.221246 0.0022135377 4.2467723e-39
0.035285532 0.22151017 0.0041636825 4.8914229e-39
0.037082076 0.21987662 0.0042666793 4.2478457e-39
0.035324693 0.21975811 0.0042462945 4.8914173e-39
0.037121207 0.21812455 0.0043492913 4.3386008e-39
0.035363823 0.21800604 0.0043289661 4.8914103e-39
0.03891772 0.21649098 0.0044522882 3.7843452e-39
0.037160367 0.21637249 0.0044319034 4.3382477e-39
0.035402983 0.21625398 0.0044115782 4.8906998e-39
0.038956881 0.21473892 0.0045349002 3.7832718e-39
0.037199527 0.21462043 0.004514575 4.4293699e-39
0.035442144 0.21450192 0.0044941902 4.9821836e-39
0.037238657 0.21286836 0.004597187 4.4293629e-39
0.035481274 0.21274985 0.0045768023 5.0732946e-39
0.037277818 0.21111628 0.0046797991 4.4293559e-39
0.036466151 0.21063817 0.0026878715 5.0732876e-39
0.038258731 0.20900816 0.0027906299 4.5215585e-39
0.036505193 0.20888993 0.0027703047 5.0732918e-39
0.034751654 0.20877168 0.0027499795 5.3498773e-39
0.039113462 0.20773065 0.0048654079 4.0602203e-39
0.038297802 0.20725989 0.0028730631 4.612685e-39
0.036544263 0.20714167 0.0028527379 5.1651315e-39
0.034790725 0.20702341 0.0028324723 5.3491584e-39
0.039152622 0.20597859 0.00494802 4.1520544e-39
0.038336873 0.20551163 0.0029555559 4.7038016e-39
0.036583334 0.2053934 0.0029352307 5.1647714e-39
0.034829795 0.20527515 0.0029149055 5.3487997e-39
0.038375944 0.20376337 0.0030379891 4.5201292e-39
0.036622405 0.20364514 0.003017664 4.8896236e-39
0.034868866 0.20352688 0.0029973388 5.0736519e-39
0.036661476 0.20189688 0.0031000972 4.5219145e-39
0.034907937 0.20177862 0.003079772 4.8907012e-39
0.038454056 0.20026684 0.0032028556 4.5183005e-39
0.036700517 0.20014861 0.0031825304 4.7055785e-39
0.034946978 0.20003036 0.0031622052 4.8899851e-39
0.038493127 0.19851857 0.0032852888 4.6105158e-39
0.036739588 0.19840035 0.0032649636 4.8889033e-39
0.034986049 0.19828209 0.003244698 4.9814689e-39
0.038532197 0.19677031 0.0033677816 4.7038058e-39
0.036778659 0.19665208 0.0033474565 4.7063225e-39
0.03502512 0.19653383 0.0033271313 4.7981637e-39
0.036817729 0.19490382 0.0034298897 4.4304433e-39
0.035064191 0.19478557 0.0034095645 4.6152031e-39
0.038610339 0.19327378 0.0035326481 4.9781927e-39
0.0368568 0.19315556 0.0035123229 4.7048582e-39
0.035103261 0.1930373 0.0034919977 4.7977895e-39
0.037708461 0.19184358 0.0055886507 5.3444655e-39
0.036895841 0.19140729 0.0035947561 4.9792885e-39
0.035142303 0.19128904 0.0035744309 4.8889005e-39
0.034817278 0.19069488 0.00059396029 4.7981426e-39
0.037747622 0.19009152 0.0056713223 5.4377415e-39
0.036934912 0.18965903 0.0036771894 4.427558e-39
0.035181373 0.1895408 0.0036569238 4.613387e-39
0.03485623 0.18895231 0.00067615509 4.7981384e-39
0.037786782 0.18833946 0.0057539344 5.528498e-39
0.036973983 0.18791077 0.0037596822 3.8772569e-39
0.035220444 0.18779251 0.003739357 4.3382323e-39
0.034895152 0.18720976 0.0007583499 4.7977741e-39
0.037825912 0.18658739 0.0058365464 5.6221229e-39
0.037013054 0.1861625 0.0038421154 3.970163e-39
0.03668192 0.18558505 0.00086075068 4.4307782e-39
0.035886198 0.18516131 -0.0011335015 4.8906802e-39
0.034142166 0.18504371 -0.0011537671 5.0729232e-39
0.037052125 0.18441424 0.0039245486 4.0612881e-39
0.037669063 0.18354015 -0.0010313392 4.5233438e-39
0.034973025 0.18372464 0.0009226799 4.9821653e-39
0.037707925 0.18180139 -0.00094932318 4.5222802e-39
0.035963923 0.18168379 -0.00096952915 4.8903369e-39
0.035050899 0.1802395 0.0010870695 4.7977811e-39
0.036837667 0.17861483 0.0011894703 4.429723e-39
0.035454839 0.17730296 0.0042340159 4.3386078e-39
0.038811117 0.17456302 -0.0025963783 4.2456989e-39
0.040590107 0.17294538 -0.0024943948 3.5084842e-39
0.03884989 0.17282805 -0.0025145411 4.1542194e-39
0.037325561 0.17217639 0.0045017004 3.6925111e-39
0.035572022 0.17205817 0.0044813752 4.2456933e-39
0.037364632 0.17042813 0.0045841336 3.8758234e-39
0.035611093 0.17030989 0.0045638084 4.3371729e-39
0.037403703 0.16867988 0.0046665668 3.8758248e-39
0.035650164 0.16856164 0.0046462417 4.2449815e-39
0.037442774 0.1669316 0.0047490001 3.8765437e-39
0.035689235 0.16681336 0.0047286749 4.2457017e-39
0.035728306 0.16506511 0.0048111081 4.4293741e-39
0.035767376 0.16331685 0.0048936009 4.7055953e-39
0.034013778 0.16319861 0.0048732758 5.072217e-39
0.034052819 0.16145034 0.004955709 5.0707793e-39
0.03409189 0.15970208 0.0050381422 4.9800186e-39
0.034081817 0.14527042 0.0027103424 4.5215571e-39
0.034120768 0.14352785 0.0027924776 4.7059442e-39
0.034482539 0.14221944 0.0058625937 5.1633252e-39
0.03415969 0.14178529 0.0028746724 4.889618e-39
0.03452161 0.14047118 0.0059450269 4.6126668e-39
0.034198642 0.14004274 0.0029568672 4.7055911e-39
0.034365863 0.13951176 -0.0010204911 4.7977797e-39
0.03456068 0.13872293 0.0060275197 4.0605762e-39
0.034599751 0.13697466 0.0061099529 4.0627272e-39
0.034276515 0.13655761 0.0031211972 4.4304433e-39
0.034315437 0.13481505 0.003203392 4.431158e-39
0.037051797 0.13299847 0.0013263822 3.7864948e-39
0.035307765 0.13288087 0.0013061762 4.247124e-39
0.037090659 0.13125969 0.0014083982 3.6003155e-39
0.036299914 0.1309543 -0.00059127808 4.1552914e-39
0.038078904 0.12933668 -0.00048929453 3.8761821e-39
0.036338687 0.12921934 -0.0005094409 4.3375288e-39
0.038117677 0.12760173 -0.00040745735 4.1509683e-39
0.03637746 0.12748438 -0.00042760372 4.5208411e-39
0.034637243 0.12736703 -0.0004478097 4.8892565e-39
0.03815645 0.12586677 -0.00032562017 3.968012e-39
0.036416233 0.12574942 -0.00034582615 4.4293629e-39
0.034676015 0.12563208 -0.00036597252 4.9814507e-39
0.038195193 0.1241318 -0.0002438426 3.6935845e-39
0.036454976 0.12401445 -0.00026398897 4.3386064e-39
0.034714758 0.12389712 -0.00028413534 4.9814521e-39
0.038233966 0.12239684 -0.00016200542 3.6939461e-39
0.036493748 0.1222795 -0.00018215179 4.1545781e-39
0.034753531 0.12216216 -0.00020235777 4.7063057e-39
0.038272738 0.12066188 -8.0168247e-05 3.6024665e-39
0.036532521 0.12054454 -0.00010037422 4.0634573e-39
0.034792304 0.12042719 -0.00012052059 4.4307964e-39
0.038311511 0.11892691 1.6093254e-06 3.6921468e-39
0.036571294 0.11880958 -1.8537045e-05 4.2460479e-39
0.035657436 0.11723201 0.0020441413 4.5226389e-39
0.034782708 0.1139043 0.0041894913 4.7055995e-39
0.034821659 0.11216173 0.0042716861 4.7977909e-39
0.034860581 0.11041917 0.0043538809 4.8910641e-39
0.035063684 0.10828246 0.00045222044 5.3495101e-39
0.035102457 0.1065475 0.00053399801 5.3484325e-39
0.03514123 0.10481255 0.00061583519 5.5313861e-39
0.034840494 0.10449977 -0.0023775101 5.2562173e-39
0.036613643 0.10288747 -0.0022758245 5.7154158e-39
0.034879148 0.10277052 -0.0022959709 5.3480654e-39
0.036652267 0.10115822 -0.0021942854 5.6235803e-39
0.034917772 0.10104126 -0.0022143722 5.1651231e-39
0.034301937 0.099726796 0.0028439164 5.5306644e-39
0.034340799 0.097988039 0.0029259324 5.0722002e-39
0.034379661 0.096249282 0.0030078888 4.5208285e-39
0.036162525 0.094628111 0.0031101108 6.1706248e-39
0.034418494 0.094510511 0.0030899048 4.4304279e-39
0.036201388 0.092889354 0.0031921268 6.3514203e-39
0.034457356 0.092771754 0.0031719208 4.33644e-39
0.03624025 0.091150597 0.0032741427 6.6287149e-39
0.034496218 0.091032997 0.0032538772 4.3382323e-39
0.036279082 0.089411832 0.0033560991 6.9924723e-39
0.03453505 0.089294232 0.0033358932 4.2442444e-39
0.034098834 0.073465914 0.0020684004 4.5219257e-39
0.034137607 0.071730949 0.0021502376 4.7977923e-39
0.034176379 0.069995984 0.0022320151 4.8892705e-39
0.034215122 0.068261027 0.0023138523 4.9817982e-39
